# .PCD v0.7 - Point Cloud Data file format
VERSION 0.7
FIELDS x y z rgb
SIZE 4 4 4 4
TYPE F F F F
COUNT 1 1 1 1
WIDTH 1038
HEIGHT 1
VIEWPOINT 0 0 0 1 0 0 0
POINTS 1038
DATA ascii
0.12413809 -0.065385722 0.99500006 1.1346193e-38
0.12603334 -0.065385722 0.99500006 1.1346206e-38
0.12792858 -0.065385722 0.99500006 1.1622793e-38
0.1298238 -0.065385722 0.99500006 1.2175234e-38
0.13132191 -0.065188579 0.99200004 1.014693e-38
0.13321143 -0.065188579 0.99200004 7.3818259e-39
0.13510096 -0.065188579 0.99200004 7.4740215e-39
0.13699049 -0.065188579 0.99200004 8.9491516e-39
0.13888 -0.065188579 0.99200004 1.0424282e-38
0.14076954 -0.065188579 0.99200004 9.7785325e-39
0.14222762 -0.064991429 0.98900002 1.0147315e-38
0.14411142 -0.064991429 0.98900002 1.0333123e-38
0.14599523 -0.064991429 0.98900002 1.1716057e-38
0.14787905 -0.064991429 0.98900002 1.0702987e-38
0.14976287 -0.064991429 0.98900002 8.4902922e-39
0.15210667 -0.065188579 0.99200004 9.5970027e-39
0.1539962 -0.065188579 0.99200004 1.0979937e-38
0.15588573 -0.065188579 0.99200004 1.0701558e-38
0.15777524 -0.065188579 0.99200004 1.0609362e-38
0.15966477 -0.065188579 0.99200004 1.0885934e-38
0.16155429 -0.065188579 0.99200004 9.9639776e-39
0.16344382 -0.065188579 0.99200004 9.5033624e-39
0.16533333 -0.065188579 0.99200004 8.6736017e-39
0.16772857 -0.065385722 0.99500006 9.40975e-39
0.16962382 -0.065385722 0.99500006 1.1069271e-38
0.17151906 -0.065385722 0.99500006 1.1343322e-38
0.17341429 -0.065385722 0.99500006 1.0882344e-38
0.1758381 -0.065582857 0.99800003 1.042424e-38
0.17827335 -0.065779999 1.001 1.0239848e-38
0.18072002 -0.065977141 1.0040001 9.5022834e-39
0.18263239 -0.065977141 1.0040001 8.4881314e-39
0.1850962 -0.066174291 1.0070001 8.3944813e-39
0.18868572 -0.066765718 1.016 8.0256987e-39
0.19174668 -0.067160003 1.0220001 8.7650462e-39
0.19426192 -0.067357145 1.0250001 1.2545067e-38
0.19678858 -0.067554288 1.028 1.4200265e-38
0.19874667 -0.067554288 1.028 1.4753439e-38
0.20129049 -0.06775143 1.031 1.4936383e-38
0.2032543 -0.06775143 1.031 1.4751992e-38
0.20521809 -0.06775143 1.031 1.4751641e-38
0.2071819 -0.06775143 1.031 1.4751641e-38
0.20914571 -0.06775143 1.031 1.4843118e-38
0.21172382 -0.067948572 1.034 1.5027509e-38
0.21452001 -0.068211436 1.0380001 1.5211903e-38
0.21649717 -0.068211436 1.0380001 1.5672882e-38
0.21847431 -0.068211436 1.0380001 1.3369773e-38
0.22045146 -0.068211436 1.0380001 8.6677961e-39
0.22242859 -0.068211436 1.0380001 8.0267777e-39
0.22440574 -0.068211436 1.0380001 9.7784947e-39
0.22638288 -0.068211436 1.0380001 1.1803559e-38
0.097729526 -0.064830475 1.016 1.760935e-38
0.099664763 -0.064830475 1.016 9.5883301e-39
0.1016 -0.064830475 1.016 8.0238911e-39
0.10353524 -0.064830475 1.016 1.0513173e-38
0.10515904 -0.064639047 1.013 1.0698659e-38
0.10708857 -0.064639047 1.013 1.0145485e-38
0.10869523 -0.064447619 1.01 7.2917112e-39
0.11029048 -0.064256199 1.0070001 1.005758e-38
0.11220858 -0.064256199 1.0070001 1.0702261e-38
0.11344667 -0.063873336 1.001 1.116324e-38
0.11535333 -0.063873336 1.001 1.1163577e-38
0.11690857 -0.063681908 0.99800003 1.1347969e-38
0.11880952 -0.063681908 0.99800003 1.1346912e-38
0.12071048 -0.063681908 0.99800003 1.1254716e-38
0.12224287 -0.063490473 0.99500006 1.1070325e-38
0.12413809 -0.063490473 0.99500006 1.1439108e-38
0.12603334 -0.063490473 0.99500006 1.1438767e-38
0.12792858 -0.063490473 0.99500006 1.1346572e-38
0.1298238 -0.063490473 0.99500006 1.180788e-38
0.13171905 -0.063490473 0.99500006 9.8717721e-39
0.13321143 -0.063299052 0.99200004 7.7491567e-39
0.13510096 -0.063299052 0.99200004 8.1179392e-39
0.13699049 -0.063299052 0.99200004 1.0606488e-38
0.13888 -0.063299052 0.99200004 1.079088e-38
0.14076954 -0.063299052 0.99200004 9.5023086e-39
0.14265905 -0.063299052 0.99200004 9.2257217e-39
0.14454857 -0.063299052 0.99200004 1.0148356e-38
0.14643811 -0.063299052 0.99200004 1.1715682e-38
0.14832762 -0.063299052 0.99200004 1.0058731e-38
0.15021715 -0.063299052 0.99200004 8.3070136e-39
0.15210667 -0.063299052 0.99200004 1.0148707e-38
0.1539962 -0.063299052 0.99200004 1.1900424e-38
0.15588573 -0.063299052 0.99200004 1.189937e-38
0.15777524 -0.063299052 0.99200004 1.1622783e-38
0.15966477 -0.063299052 0.99200004 1.1162886e-38
0.16155429 -0.063299052 0.99200004 1.0148735e-38
0.16344382 -0.063299052 0.99200004 1.0148006e-38
0.16533333 -0.063299052 0.99200004 8.9494627e-39
0.16772857 -0.063490473 0.99500006 9.1313456e-39
0.16962382 -0.063490473 0.99500006 1.1436236e-38
0.17203619 -0.063681908 0.99800003 1.1252208e-38
0.17393714 -0.063681908 0.99800003 1.0883426e-38
0.17636667 -0.063873336 1.001 1.0240211e-38
0.17827335 -0.063873336 1.001 1.005582e-38
0.18072002 -0.064064763 1.0040001 9.8699799e-39
0.18263239 -0.064064763 1.0040001 8.8558279e-39
0.1850962 -0.064256199 1.0070001 8.2104459e-39
0.18812858 -0.064639047 1.013 8.3948372e-39
0.19118382 -0.06502191 1.0190001 1.0421346e-38
0.19426192 -0.065404765 1.0250001 1.4109171e-38
0.19678858 -0.065596186 1.028 1.4661253e-38
0.19874667 -0.065596186 1.028 1.4753449e-38
0.20129049 -0.065787621 1.031 1.4935664e-38
0.2032543 -0.065787621 1.031 1.4935664e-38
0.20521809 -0.065787621 1.031 1.4843834e-38
0.2071819 -0.065787621 1.031 1.4843834e-38
0.20914571 -0.065787621 1.031 1.4843834e-38
0.21315715 -0.066425718 1.041 1.4843834e-38
0.21514 -0.066425718 1.041 1.4843481e-38
0.21712285 -0.066425718 1.041 1.5212264e-38
0.21910572 -0.066425718 1.041 1.3645647e-38
0.22108857 -0.066425718 1.041 9.2202566e-39
0.22307143 -0.066425718 1.041 8.4848846e-39
0.22505429 -0.066425718 1.041 9.8678191e-39
0.22703715 -0.066425718 1.041 1.1803192e-38
0.099664763 -0.062895238 1.016 9.7734304e-39
0.1016 -0.062895238 1.016 8.207932e-39
0.10353524 -0.062895238 1.016 1.0512823e-38
0.10515904 -0.062709525 1.013 1.0973448e-38
0.10708857 -0.062709525 1.013 1.0696861e-38
0.10869523 -0.062523812 1.01 1.0054721e-38
0.11061905 -0.062523812 1.01 1.1161069e-38
0.11220858 -0.062338103 1.0070001 1.0977025e-38
0.11344667 -0.061966669 1.001 1.0700438e-38
0.11535333 -0.061966669 1.001 1.0885198e-38
0.11726001 -0.061966669 1.001 1.1438372e-38
0.11880952 -0.061780956 0.99800003 1.1530584e-38
0.12071048 -0.061780956 0.99800003 1.1438389e-38
0.12224287 -0.061595239 0.99500006 1.1438755e-38
0.12413809 -0.061595239 0.99500006 1.2821689e-38
0.12603334 -0.061595239 0.99500006 1.2452553e-38
0.12792858 -0.061595239 0.99500006 1.0424249e-38
0.1298238 -0.061595239 0.99500006 9.5962642e-39
0.13171905 -0.061595239 0.99500006 9.5962642e-39
0.13321143 -0.061409526 0.99200004 8.3034263e-39
0.13510096 -0.061409526 0.99200004 7.2892744e-39
0.13699049 -0.061409526 0.99200004 9.9629112e-39
0.13888 -0.061409526 0.99200004 1.3189758e-38
0.14076954 -0.061409526 0.99200004 1.1991533e-38
0.14265905 -0.061409526 0.99200004 8.9490774e-39
0.14454857 -0.061409526 0.99200004 8.3988491e-39
0.14643811 -0.061409526 0.99200004 1.1717892e-38
0.14832762 -0.061409526 0.99200004 1.2360711e-38
0.15021715 -0.061409526 0.99200004 8.8572769e-39
0.15210667 -0.061409526 0.99200004 8.1222412e-39
0.1539962 -0.061409526 0.99200004 1.0980306e-38
0.15588573 -0.061409526 0.99200004 1.1807537e-38
0.15777524 -0.061409526 0.99200004 1.1715341e-38
0.15966477 -0.061409526 0.99200004 1.116324e-38
0.16155429 -0.061409526 0.99200004 1.0241283e-38
0.16344382 -0.061409526 0.99200004 9.2264153e-39
0.16583334 -0.061595239 0.99500006 8.4888503e-39
0.16772857 -0.061595239 0.99500006 8.7639924e-39
0.16962382 -0.061595239 0.99500006 1.1622057e-38
0.17203619 -0.061780956 0.99800003 1.1620988e-38
0.17393714 -0.061780956 0.99800003 1.0883423e-38
0.17636667 -0.061966669 1.001 1.042424e-38
0.17880763 -0.062152382 1.0040001 1.0147653e-38
0.18072002 -0.062152382 1.0040001 9.5948321e-39
0.18317811 -0.062338103 1.0070001 8.119702e-39
0.1850962 -0.062338103 1.0070001 8.2097397e-39
0.18757142 -0.062523812 1.01 1.2081956e-38
0.19062096 -0.062895238 1.016 1.410701e-38
0.19426192 -0.063452385 1.0250001 1.5305554e-38
0.19678858 -0.063638091 1.028 1.5305168e-38
0.19932666 -0.063823812 1.031 1.5028581e-38
0.20129049 -0.063823812 1.031 1.5028213e-38
0.2032543 -0.063823812 1.031 1.4936017e-38
0.20581524 -0.064009525 1.034 1.4844187e-38
0.20778477 -0.064009525 1.034 1.5028579e-38
0.21178286 -0.064628571 1.044 1.4844184e-38
0.21377143 -0.064628571 1.044 1.4751989e-38
0.21514 -0.064442858 1.041 1.5027149e-38
0.21712285 -0.064442858 1.041 1.521154e-38
0.21910572 -0.064442858 1.041 1.3369407e-38
0.22108857 -0.064442858 1.041 9.2206042e-39
0.22307143 -0.064442858 1.041 8.6710962e-39
0.22505429 -0.064442858 1.041 9.3164656e-39
0.22703715 -0.064442858 1.041 1.1435485e-38
0.22902 -0.064442858 1.041 1.4477941e-38
0.097729526 -0.060960002 1.016 1.7609703e-38
0.099664763 -0.060960002 1.016 1.0234053e-38
0.1016 -0.060960002 1.016 8.4848692e-39
0.10353524 -0.060960002 1.016 1.0513173e-38
0.10515904 -0.06078 1.013 1.0789412e-38
0.10708857 -0.06078 1.013 1.0697217e-38
0.10901809 -0.06078 1.013 1.0422422e-38
0.11061905 -0.060600001 1.01 1.1067792e-38
0.11220858 -0.060420007 1.0070001 1.0977038e-38
0.11378667 -0.06024 1.0040001 1.0884842e-38
0.11535333 -0.060060002 1.001 1.0425659e-38
0.11726001 -0.060060002 1.001 1.1532007e-38
0.11880952 -0.05988 0.99800003 1.1623849e-38
0.12071048 -0.05988 0.99800003 1.1531654e-38
0.12261143 -0.05988 0.99800003 1.1715341e-38
0.12413809 -0.059700005 0.99500006 1.2268515e-38
0.12603334 -0.059700005 0.99500006 1.2361064e-38
0.12792858 -0.059700005 0.99500006 9.5029994e-39
0.1298238 -0.059700005 0.99500006 6.5591684e-39
0.13171905 -0.059700005 0.99500006 9.6938198e-39
0.1336143 -0.059700005 0.99500006 1.0516121e-38
0.13550952 -0.059700005 0.99500006 7.1970787e-39
0.13740477 -0.059700005 0.99500006 9.6859389e-39
0.13888 -0.059520002 0.99200004 1.346596e-38
0.14076954 -0.059520002 0.99200004 1.2544048e-38
0.14265905 -0.059520002 0.99200004 8.7640275e-39
0.14454857 -0.059520002 0.99200004 6.7389508e-39
0.14643811 -0.059520002 0.99200004 1.0426776e-38
0.14832762 -0.059520002 0.99200004 1.3095755e-38
0.15021715 -0.059520002 0.99200004 1.0145495e-38
0.15210667 -0.059520002 0.99200004 8.5824753e-39
0.1539962 -0.059520002 0.99200004 1.0979562e-38
0.15588573 -0.059520002 0.99200004 1.1255445e-38
0.15777524 -0.059520002 0.99200004 1.051788e-38
0.16014764 -0.059700005 0.99500006 1.0332773e-38
0.16204286 -0.059700005 0.99500006 9.9639902e-39
0.16393811 -0.059700005 0.99500006 8.7661476e-39
0.16583334 -0.059700005 0.99500006 9.0427345e-39
0.16772857 -0.059700005 0.99500006 9.406485e-39
0.17013523 -0.05988 0.99800003 1.0881615e-38
0.17203619 -0.05988 0.99800003 1.1345826e-38
0.17446001 -0.060060002 1.001 1.0884848e-38
0.17689525 -0.06024 1.0040001 1.005582e-38
0.17880763 -0.06024 1.0040001 1.005582e-38
0.18072002 -0.06024 1.0040001 9.4100877e-39
0.18317811 -0.060420007 1.0070001 7.842762e-39
0.1850962 -0.060420007 1.0070001 7.7491118e-39
0.18757142 -0.060600001 1.01 1.2451089e-38
0.1900581 -0.06078 1.013 1.43836e-38
0.19426192 -0.061500005 1.0250001 1.5028969e-38
0.19678858 -0.06168 1.028 1.5028581e-38
0.21178286 -0.062640004 1.044 1.4659799e-38
0.21377143 -0.062640004 1.044 1.4659799e-38
0.21514 -0.062459998 1.041 1.5210461e-38
0.21712285 -0.062459998 1.041 1.5210461e-38
0.21910572 -0.062459998 1.041 1.2447467e-38
0.22108857 -0.062459998 1.041 9.5894021e-39
0.22307143 -0.062459998 1.041 8.8558406e-39
0.22505429 -0.062459998 1.041 9.5934056e-39
0.22703715 -0.062459998 1.041 1.1803192e-38
0.22902 -0.062459998 1.041 1.4661256e-38
0.097729526 -0.059024762 1.016 1.7425668e-38
0.099664763 -0.059024762 1.016 1.0787582e-38
0.1016 -0.059024762 1.016 8.5770803e-39
0.10353524 -0.059024762 1.016 1.0236602e-38
0.10547048 -0.059024762 1.016 1.0697214e-38
0.10708857 -0.058850475 1.013 1.0697214e-38
0.10901809 -0.058850475 1.013 9.9621629e-39
0.11061905 -0.058676191 1.01 9.5933804e-39
0.11220858 -0.05850191 1.0070001 1.0607176e-38
0.11378667 -0.058327623 1.0040001 1.0975959e-38
0.11535333 -0.058153339 1.001 1.0792286e-38
0.11726001 -0.058153339 1.001 1.1898634e-38
0.11916667 -0.058153339 1.001 1.1348322e-38
0.12107334 -0.058153339 1.001 1.0426365e-38
0.12261143 -0.057979047 0.99800003 9.7799745e-39
0.12451239 -0.057979047 0.99800003 9.2268007e-39
0.12641335 -0.057979047 0.99800003 8.4927781e-39
0.1283143 -0.057979047 0.99800003 7.0176481e-39
0.13021523 -0.057979047 0.99800003 6.1914229e-39
0.13171905 -0.057804763 0.99500006 1.1723161e-38
0.1336143 -0.057804763 0.99500006 1.1900452e-38
0.13550952 -0.057804763 0.99500006 4.7091924e-39
0.13740477 -0.057804763 0.99500006 6.0064304e-39
0.13930002 -0.057804763 0.99500006 1.2275733e-38
0.14119524 -0.057804763 0.99500006 1.401844e-38
0.14265905 -0.057630476 0.99200004 1.0699397e-38
0.14454857 -0.057630476 0.99200004 7.5683584e-39
0.14643811 -0.057630476 0.99200004 7.1073802e-39
0.1487762 -0.057804763 0.99500006 1.0147656e-38
0.15067144 -0.057804763 0.99500006 1.1622786e-38
0.15256667 -0.057804763 0.99500006 1.1622044e-38
0.15446192 -0.057804763 0.99500006 1.2359609e-38
0.15635714 -0.057804763 0.99500006 1.1807171e-38
0.15825239 -0.057804763 0.99500006 1.0700824e-38
0.16014764 -0.057804763 0.99500006 1.0792669e-38
0.16204286 -0.057804763 0.99500006 1.0055104e-38
0.16393811 -0.057804763 0.99500006 1.0239473e-38
0.16633335 -0.057979047 0.99800003 1.1530212e-38
0.16823429 -0.057979047 0.99800003 1.0515687e-38
0.17013523 -0.057979047 0.99800003 9.0405569e-39
0.17255335 -0.058153339 1.001 1.0054381e-38
0.17446001 -0.058153339 1.001 1.1160728e-38
0.17689525 -0.058327623 1.0040001 1.042387e-38
0.17880763 -0.058327623 1.0040001 1.0055087e-38
0.18072002 -0.058327623 1.0040001 9.8696267e-39
0.18317811 -0.05850191 1.0070001 8.0257141e-39
0.1850962 -0.05850191 1.0070001 7.8409571e-39
0.1870143 -0.05850191 1.0070001 1.263513e-38
0.1900581 -0.058850475 1.013 1.4752001e-38
0.21178286 -0.060651429 1.044 1.4751273e-38
0.21377143 -0.060651429 1.044 1.4751273e-38
0.21576001 -0.060651429 1.044 1.4934954e-38
0.21774857 -0.060651429 1.044 1.373641e-38
0.21973714 -0.060651429 1.044 1.2263416e-38
0.22172572 -0.060651429 1.044 9.9585251e-39
0.22371429 -0.060651429 1.044 9.3168355e-39
0.22570287 -0.060651429 1.044 1.0238792e-38
0.22703715 -0.060477141 1.041 1.1435855e-38
0.22902 -0.060477141 1.041 1.4201724e-38
0.099959053 -0.057258096 1.0190001 1.1432962e-38
0.1019 -0.057258096 1.0190001 8.4841658e-39
0.10353524 -0.057089522 1.016 1.0143687e-38
0.10547048 -0.057089522 1.016 1.0789412e-38
0.10708857 -0.056920953 1.013 1.0697217e-38
0.10901809 -0.056920953 1.013 9.9625258e-39
0.11094762 -0.056920953 1.013 9.5937433e-39
0.11254285 -0.05675238 1.01 9.5934028e-39
0.11378667 -0.056415241 1.0040001 9.5934028e-39
0.11569905 -0.056415241 1.0040001 8.7643484e-39
0.11726001 -0.056246668 1.001 9.2253265e-39
0.11916667 -0.056246668 1.001 8.6757499e-39
0.12107334 -0.056246668 1.001 8.4913586e-39
0.12298001 -0.056246668 1.001 8.0311162e-39
0.12488668 -0.056246668 1.001 7.9389205e-39
0.12679334 -0.056246668 1.001 7.2942672e-39
0.1283143 -0.056078095 0.99800003 6.4645065e-39
0.13021523 -0.056078095 0.99800003 4.9003954e-39
0.13211618 -0.056078095 0.99800003 1.1354089e-38
0.13401714 -0.056078095 0.99800003 1.2450401e-38
0.13550952 -0.055909529 0.99500006 5.8123156e-39
0.13740477 -0.055909529 0.99500006 4.4412221e-39
0.13930002 -0.055909529 0.99500006 1.1632481e-38
0.14119524 -0.055909529 0.99500006 1.3925541e-38
0.14309049 -0.055909529 0.99500006 1.2266019e-38
0.14498572 -0.055909529 0.99500006 1.1067832e-38
0.14688095 -0.055909529 0.99500006 9.0395284e-39
0.1487762 -0.055909529 0.99500006 6.8297143e-39
0.15067144 -0.055909529 0.99500006 8.6736269e-39
0.15256667 -0.055909529 0.99500006 1.1618091e-38
0.15446192 -0.055909529 0.99500006 1.2447852e-38
0.15635714 -0.055909529 0.99500006 1.1713902e-38
0.15825239 -0.055909529 0.99500006 1.1160728e-38
0.16014764 -0.055909529 0.99500006 1.1620262e-38
0.16204286 -0.055909529 0.99500006 1.0790501e-38
0.16443239 -0.056078095 0.99800003 9.5951979e-39
0.16633335 -0.056078095 0.99800003 9.8717847e-39
0.16823429 -0.056078095 0.99800003 1.033275e-38
0.17013523 -0.056078095 0.99800003 8.9498158e-39
0.17255335 -0.056246668 1.001 8.4877783e-39
0.17446001 -0.056246668 1.001 9.4097346e-39
0.17689525 -0.056415241 1.0040001 1.0699024e-38
0.17880763 -0.056415241 1.0040001 1.0422438e-38
0.18126 -0.056583814 1.0070001 1.0237681e-38
0.18317811 -0.056583814 1.0070001 8.393768e-39
0.1850962 -0.056583814 1.0070001 7.8409571e-39
0.1870143 -0.056583814 1.0070001 1.3096108e-38
0.21178286 -0.058662858 1.044 1.4475052e-38
0.21377143 -0.058662858 1.044 1.4843834e-38
0.21576001 -0.058662858 1.044 1.4934963e-38
0.21774857 -0.058662858 1.044 1.226129e-38
0.21973714 -0.058662858 1.044 1.1340753e-38
0.22172572 -0.058662858 1.044 1.078758e-38
0.22371429 -0.058662858 1.044 9.9621853e-39
0.22570287 -0.058662858 1.044 1.0515359e-38
0.22703715 -0.058494285 1.041 1.1803562e-38
0.22902 -0.058494285 1.041 1.4385039e-38
0.23100287 -0.058494285 1.041 1.4844553e-38
0.098595247 -0.055642862 1.0250001 1.7424961e-38
0.099959053 -0.055317145 1.0190001 1.2169811e-38
0.1019 -0.055317145 1.0190001 8.9458628e-39
0.10353524 -0.055154286 1.016 9.8678191e-39
0.10547048 -0.055154286 1.016 1.0329526e-38
0.10740571 -0.055154286 1.016 1.0974895e-38
0.10901809 -0.054991428 1.013 1.088341e-38
0.11094762 -0.054991428 1.013 1.1067801e-38
0.11254285 -0.054828569 1.01 1.0605762e-38
0.11412667 -0.054665718 1.0070001 9.9603931e-39
0.11569905 -0.05450286 1.0040001 8.6710962e-39
0.11761144 -0.05450286 1.0040001 8.5789005e-39
0.11916667 -0.054340001 1.001 9.1335135e-39
0.12107334 -0.054340001 1.001 9.5944916e-39
0.12298001 -0.054340001 1.001 1.0425296e-38
0.12488668 -0.054340001 1.001 1.1439448e-38
0.12679334 -0.054340001 1.001 1.1991581e-38
0.1287 -0.054340001 1.001 1.1899385e-38
0.13060667 -0.054340001 1.001 1.2083411e-38
0.13211618 -0.054177143 0.99800003 1.3281954e-38
0.13401714 -0.054177143 0.99800003 1.2175969e-38
0.1359181 -0.054177143 0.99800003 3.9705582e-39
0.13781905 -0.054177143 0.99800003 2.4165756e-39
0.13930002 -0.054014288 0.99500006 1.0806378e-38
0.14119524 -0.054014288 0.99500006 1.3925897e-38
0.14309049 -0.054014288 0.99500006 1.3464919e-38
0.14498572 -0.054014288 0.99500006 1.2728444e-38
0.14688095 -0.054014288 0.99500006 1.1345509e-38
0.1487762 -0.054014288 0.99500006 8.7636884e-39
0.15067144 -0.054014288 0.99500006 7.1963627e-39
0.15256667 -0.054014288 0.99500006 7.5661779e-39
0.15446192 -0.054014288 0.99500006 7.7505692e-39
0.15635714 -0.054014288 0.99500006 7.475427e-39
0.15825239 -0.054014288 0.99500006 7.475427e-39
0.16014764 -0.054014288 0.99500006 7.9363898e-39
0.16204286 -0.054014288 0.99500006 8.120781e-39
0.16443239 -0.054177143 0.99800003 7.1970549e-39
0.16633335 -0.054177143 0.99800003 6.2750986e-39
0.16823429 -0.054177143 0.99800003 7.9338815e-39
0.17064667 -0.054340001 1.001 9.2246203e-39
0.17255335 -0.054340001 1.001 8.7625631e-39
0.17498286 -0.05450286 1.0040001 8.5781719e-39
0.17689525 -0.05450286 1.0040001 9.499775e-39
0.17880763 -0.05450286 1.0040001 1.0329536e-38
0.18126 -0.054665718 1.0070001 1.0329148e-38
0.18317811 -0.054665718 1.0070001 8.4852349e-39
0.1850962 -0.054665718 1.0070001 8.7611156e-39
0.1870143 -0.054665718 1.0070001 1.4016266e-38
0.21438572 -0.056837145 1.0470001 1.5120061e-38
0.21576001 -0.056674287 1.044 1.4475067e-38
0.21774857 -0.056674287 1.044 1.0879437e-38
0.21973714 -0.056674287 1.044 1.0053614e-38
0.22172572 -0.056674287 1.044 1.0514593e-38
0.22371429 -0.056674287 1.044 1.014728e-38
0.22570287 -0.056674287 1.044 1.1438019e-38
0.22703715 -0.056511428 1.041 1.2264918e-38
0.22902 -0.056511428 1.041 1.4201026e-38
0.23100287 -0.056511428 1.041 1.4476124e-38
0.098595247 -0.053690478 1.0250001 1.7608634e-38
0.10054763 -0.053690478 1.0250001 1.2722265e-38
0.1022 -0.053533334 1.0220001 9.2217308e-39
0.10384095 -0.05337619 1.0190001 9.7749046e-39
0.10547048 -0.053219046 1.016 9.9611035e-39
0.10740571 -0.053219046 1.016 1.088306e-38
0.10901809 -0.053061903 1.013 1.1158918e-38
0.11094762 -0.053061903 1.013 1.1435505e-38
0.11254285 -0.052904762 1.01 1.1342962e-38
0.11412667 -0.052747626 1.0070001 1.115857e-38
0.11569905 -0.052590482 1.0040001 1.1158215e-38
0.11761144 -0.052590482 1.0040001 1.1342606e-38
0.11916667 -0.052433338 1.001 1.1527e-38
0.12107334 -0.052433338 1.001 1.2080174e-38
0.12334858 -0.052590482 1.0040001 1.1805732e-38
0.12488668 -0.052433338 1.001 1.2635493e-38
0.12679334 -0.052433338 1.001 1.2819897e-38
0.1287 -0.052433338 1.001 1.2727701e-38
0.13060667 -0.052433338 1.001 1.2359995e-38
0.13211618 -0.052276194 0.99800003 1.309756e-38
0.13401714 -0.052276194 0.99800003 1.2912095e-38
0.1359181 -0.052276194 0.99800003 6.4584011e-39
0.13781905 -0.052276194 0.99800003 3.6107159e-39
0.13930002 -0.05211905 0.99500006 1.153954e-38
0.14119524 -0.05211905 0.99500006 1.3833345e-38
0.14309049 -0.05211905 0.99500006 1.309578e-38
0.14498572 -0.05211905 0.99500006 1.291355e-38
0.14688095 -0.05211905 0.99500006 1.226818e-38
0.1487762 -0.05211905 0.99500006 1.1806473e-38
0.15067144 -0.05211905 0.99500006 1.0331343e-38
0.15256667 -0.05211905 0.99500006 8.764368e-39
0.15446192 -0.05211905 0.99500006 7.8424117e-39
0.15635714 -0.05211905 0.99500006 5.7273198e-39
0.15825239 -0.05211905 0.99500006 6.925863e-39
0.16063048 -0.052276194 0.99800003 7.9364052e-39
0.16253144 -0.052276194 0.99800003 7.8442096e-39
0.16443239 -0.052276194 0.99800003 7.6569442e-39
0.16633335 -0.052276194 0.99800003 7.9335311e-39
0.16823429 -0.052276194 0.99800003 8.7604051e-39
0.17064667 -0.052433338 1.001 9.5901658e-39
0.17255335 -0.052433338 1.001 9.4979702e-39
0.17498286 -0.052590482 1.0040001 9.4979702e-39
0.17689525 -0.052590482 1.0040001 9.4983303e-39
0.17934193 -0.052747626 1.0070001 9.7749172e-39
0.18126 -0.052747626 1.0070001 9.6830719e-39
0.18317811 -0.052747626 1.0070001 8.5767243e-39
0.1850962 -0.052747626 1.0070001 8.9455068e-39
0.21576001 -0.054685716 1.044 1.3738205e-38
0.21774857 -0.054685716 1.044 1.0419163e-38
0.21973714 -0.054685716 1.044 9.0402066e-39
0.22172572 -0.054685716 1.044 1.0330945e-38
0.22371429 -0.054685716 1.044 1.0239476e-38
0.22570287 -0.054685716 1.044 1.226778e-38
0.22703715 -0.054528572 1.041 1.2819511e-38
0.22902 -0.054528572 1.041 1.3833663e-38
0.23100287 -0.054528572 1.041 1.4107704e-38
0.098595247 -0.051738098 1.0250001 1.7516438e-38
0.10054763 -0.051738098 1.0250001 1.3091048e-38
0.1022 -0.051586669 1.0220001 9.3142796e-39
0.10384095 -0.05143524 1.0190001 9.5908664e-39
0.10578191 -0.05143524 1.0190001 9.9607504e-39
0.10740571 -0.051283814 1.016 1.1067098e-38
0.10934096 -0.051283814 1.016 1.1251119e-38
0.11094762 -0.051132381 1.013 1.1712097e-38
0.11287715 -0.051132381 1.013 1.1987247e-38
0.11412667 -0.05082953 1.0070001 1.2632616e-38
0.11569905 -0.050678097 1.0040001 1.2633701e-38
0.11761144 -0.050678097 1.0040001 1.2818092e-38
0.11952382 -0.050678097 1.0040001 1.272554e-38
0.1214362 -0.050678097 1.0040001 1.3278714e-38
0.12334858 -0.050678097 1.0040001 1.291065e-38
0.12526095 -0.050678097 1.0040001 1.291065e-38
0.12717335 -0.050678097 1.0040001 1.2635143e-38
0.1287 -0.050526667 1.001 1.2542947e-38
0.13060667 -0.050526667 1.001 1.217525e-38
0.13251334 -0.050526667 1.001 1.3005011e-38
0.13442001 -0.050526667 1.001 1.3004291e-38
0.1359181 -0.050375238 0.99800003 7.9335311e-39
0.13781905 -0.050375238 0.99800003 3.1544518e-39
0.13930002 -0.050223812 0.99500006 9.1471677e-39
0.14119524 -0.050223812 0.99500006 1.328232e-38
0.14309049 -0.050223812 0.99500006 1.3097928e-38
0.14498572 -0.050223812 0.99500006 1.2636947e-38
0.14688095 -0.050223812 0.99500006 1.2729143e-38
0.1487762 -0.050223812 0.99500006 1.2452559e-38
0.15067144 -0.050223812 0.99500006 1.2729146e-38
0.15256667 -0.050223812 0.99500006 1.2359642e-38
0.15446192 -0.050223812 0.99500006 1.2083055e-38
0.15635714 -0.050223812 0.99500006 1.2083411e-38
0.15825239 -0.050223812 0.99500006 1.2175606e-38
0.16063048 -0.050375238 0.99800003 1.2174883e-38
0.16253144 -0.050375238 0.99800003 1.1898296e-38
0.16443239 -0.050375238 0.99800003 1.189758e-38
0.16633335 -0.050375238 0.99800003 1.2081972e-38
0.16874 -0.050526667 1.001 1.1619561e-38
0.17064667 -0.050526667 1.001 1.1342974e-38
0.17255335 -0.050526667 1.001 1.1251126e-38
0.17498286 -0.050678097 1.0040001 1.1251126e-38
0.17742382 -0.05082953 1.0070001 1.0330605e-38
0.17934193 -0.05082953 1.0070001 1.0054018e-38
0.18126 -0.05082953 1.0070001 9.3153838e-39
0.18317811 -0.05082953 1.0070001 8.2090362e-39
0.1850962 -0.05082953 1.0070001 9.6834278e-39
0.21438572 -0.052848574 1.0470001 1.3921162e-38
0.21576001 -0.052697144 1.044 1.2541778e-38
0.21774857 -0.052697144 1.044 1.0236887e-38
0.21973714 -0.052697144 1.044 9.6863215e-39
0.22172572 -0.052697144 1.044 9.9629084e-39
0.22371429 -0.052697144 1.044 1.1066722e-38
0.22505429 -0.052545715 1.041 1.3832591e-38
0.22703715 -0.052545715 1.041 1.4199556e-38
0.22902 -0.052545715 1.041 1.4383948e-38
0.23100287 -0.052545715 1.041 1.4383575e-38
0.10054763 -0.049785718 1.0250001 1.3367635e-38
0.10250001 -0.049785718 1.0250001 1.0141519e-38
0.10414667 -0.049640004 1.0220001 1.0049324e-38
0.10578191 -0.049494285 1.0190001 9.6845194e-39
0.10740571 -0.049348574 1.016 1.0790867e-38
0.10934096 -0.049348574 1.016 1.0699387e-38
0.11094762 -0.049202859 1.013 1.1344757e-38
0.11287715 -0.049202859 1.013 1.1712107e-38
0.11412667 -0.048911434 1.0070001 1.1712107e-38
0.11569905 -0.048765715 1.0040001 1.1804641e-38
0.11761144 -0.048765715 1.0040001 1.1343662e-38
0.11952382 -0.048765715 1.0040001 1.0700075e-38
0.1214362 -0.048765715 1.0040001 1.1806423e-38
0.12334858 -0.048765715 1.0040001 1.2818818e-38
0.12526095 -0.048765715 1.0040001 1.2818818e-38
0.12717335 -0.048765715 1.0040001 1.2267799e-38
0.12908572 -0.048765715 1.0040001 1.2175603e-38
0.13060667 -0.04862 1.001 1.2175969e-38
0.13251334 -0.04862 1.001 1.2636947e-38
0.13442001 -0.04862 1.001 1.2821341e-38
0.13632667 -0.04862 1.001 1.0608646e-38
0.13823333 -0.04862 1.001 4.3472734e-39
0.13972001 -0.048474289 0.99800003 6.7443598e-39
0.14119524 -0.048328575 0.99500006 1.2174489e-38
0.14309049 -0.048328575 0.99500006 1.3834011e-38
0.14498572 -0.048328575 0.99500006 1.3004661e-38
0.14688095 -0.048328575 0.99500006 1.2543683e-38
0.1487762 -0.048328575 0.99500006 1.1808997e-38
0.15067144 -0.048328575 0.99500006 1.1901193e-38
0.15256667 -0.048328575 0.99500006 1.1992304e-38
0.15446192 -0.048328575 0.99500006 1.2084499e-38
0.15682857 -0.048474289 0.99800003 1.2267799e-38
0.15872952 -0.048474289 0.99800003 1.2359995e-38
0.16063048 -0.048474289 0.99800003 1.226637e-38
0.16253144 -0.048474289 0.99800003 1.226637e-38
0.16443239 -0.048474289 0.99800003 1.1714628e-38
0.16683334 -0.04862 1.001 1.1622433e-38
0.16874 -0.04862 1.001 1.1068906e-38
0.17064667 -0.04862 1.001 1.097671e-38
0.17255335 -0.04862 1.001 1.0700473e-38
0.17498286 -0.048765715 1.0040001 1.0516082e-38
0.17742382 -0.048911434 1.0070001 9.7792332e-39
0.17934193 -0.048911434 1.0070001 9.5026463e-39
0.18126 -0.048911434 1.0070001 8.9480334e-39
0.18317811 -0.048911434 1.0070001 8.2104683e-39
0.1850962 -0.048911434 1.0070001 1.0880166e-38
0.21377143 -0.050708573 1.044 1.2446044e-38
0.21576001 -0.050708573 1.044 1.0790091e-38
0.21774857 -0.050708573 1.044 1.0513504e-38
0.21973714 -0.050708573 1.044 1.0054384e-38
0.22172572 -0.050708573 1.044 1.0146579e-38
0.22371429 -0.050708573 1.044 1.1895034e-38
0.22505429 -0.050562855 1.041 1.4384316e-38
0.22638288 -0.050417144 1.0380001 1.4475052e-38
0.22836003 -0.050417144 1.0380001 1.4659443e-38
0.23033716 -0.050417144 1.0380001 1.4567963e-38
0.10084191 -0.047973335 1.028 1.4013723e-38
0.10250001 -0.047833338 1.0250001 9.867103e-39
0.10414667 -0.047693335 1.0220001 9.4983205e-39
0.10609334 -0.047693335 1.0220001 9.7763647e-39
0.10772286 -0.047553334 1.0190001 1.0606125e-38
0.10934096 -0.047413334 1.016 1.0606836e-38
0.11127619 -0.047413334 1.016 1.1436597e-38
0.11287715 -0.047273334 1.013 1.18043e-38
0.11446667 -0.04713333 1.01 9.8681918e-39
0.11604477 -0.046993338 1.0070001 7.9342066e-39
0.11761144 -0.046853337 1.0040001 7.565424e-39
0.11952382 -0.046853337 1.0040001 6.7384758e-39
0.1214362 -0.046853337 1.0040001 1.0149714e-38
0.12371716 -0.046993338 1.0070001 1.2173112e-38
0.12526095 -0.046853337 1.0040001 1.2726286e-38
0.12717335 -0.046853337 1.0040001 1.2083411e-38
0.12908572 -0.046853337 1.0040001 1.2175606e-38
0.1309981 -0.046853337 1.0040001 1.2175253e-38
0.13251334 -0.046713337 1.001 1.2544036e-38
0.13442001 -0.046713337 1.001 1.2820623e-38
0.13632667 -0.046713337 1.001 1.2912818e-38
0.13823333 -0.046713337 1.001 6.3748991e-39
0.13972001 -0.046573333 0.99800003 1.0159414e-41
0.14162096 -0.046573333 0.99800003 1.9570422e-39
0.14309049 -0.046433337 0.99500006 1.0807823e-38
0.14498572 -0.046433337 0.99500006 1.3740784e-38
0.14688095 -0.046433337 0.99500006 1.2634436e-38
0.1487762 -0.046433337 0.99500006 1.1900114e-38
0.15112571 -0.046573333 0.99800003 1.1900114e-38
0.15302667 -0.046573333 0.99800003 1.1715723e-38
0.15492763 -0.046573333 0.99800003 1.1715723e-38
0.15682857 -0.046573333 0.99800003 1.1991931e-38
0.15872952 -0.046573333 0.99800003 1.2084127e-38
0.16063048 -0.046573333 0.99800003 1.1898316e-38
0.16253144 -0.046573333 0.99800003 1.1713925e-38
0.16492666 -0.046713337 1.001 1.134549e-38
0.16683334 -0.046713337 1.001 1.1437685e-38
0.16874 -0.046713337 1.001 1.097671e-38
0.17115811 -0.046853337 1.0040001 1.0884514e-38
0.17307049 -0.046853337 1.0040001 1.0699753e-38
0.17498286 -0.046853337 1.0040001 1.0054384e-38
0.17742382 -0.046993338 1.0070001 9.7788731e-39
0.17934193 -0.046993338 1.0070001 9.4100905e-39
0.18179999 -0.04713333 1.01 8.4874252e-39
0.18372381 -0.04713333 1.01 8.6718164e-39
0.18564761 -0.04713333 1.01 1.1065994e-38
0.21377143 -0.048720002 1.044 1.0511002e-38
0.21576001 -0.048720002 1.044 9.4100681e-39
0.21774857 -0.048720002 1.044 1.0516416e-38
0.21973714 -0.048720002 1.044 1.0882707e-38
0.22172572 -0.048720002 1.044 1.1896859e-38
0.22371429 -0.048720002 1.044 1.2816634e-38
0.22505429 -0.048579998 1.041 1.4476156e-38
0.22638288 -0.048440006 1.0380001 1.4476118e-38
0.22836003 -0.048440006 1.0380001 1.4476118e-38
0.23033716 -0.048440006 1.0380001 1.4291739e-38
0.10084191 -0.046015237 1.028 1.4105919e-38
0.10250001 -0.045880955 1.0250001 1.1157101e-38
0.10414667 -0.045746669 1.0220001 9.6819705e-39
0.10609334 -0.045746669 1.0220001 9.6845194e-39
0.10772286 -0.045612384 1.0190001 1.0606476e-38
0.10966381 -0.045612384 1.0190001 1.0238772e-38
0.11127619 -0.045478098 1.016 1.1068533e-38
0.11287715 -0.045343809 1.013 1.1529514e-38
0.11480667 -0.045343809 1.013 9.6856012e-39
0.11639047 -0.045209523 1.01 6.6438335e-39
0.11796286 -0.045075241 1.0070001 6.8282247e-39
0.11952382 -0.044940956 1.0040001 5.3562938e-39
0.1214362 -0.044940956 1.0040001 9.3207059e-39
0.12371716 -0.045075241 1.0070001 1.1069612e-38
0.12526095 -0.044940956 1.0040001 1.2268155e-38
0.12717335 -0.044940956 1.0040001 1.217525e-38
0.12908572 -0.044940956 1.0040001 1.217525e-38
0.1309981 -0.044940956 1.0040001 1.2359998e-38
0.13291049 -0.044940956 1.0040001 1.2544389e-38
0.13482286 -0.044940956 1.0040001 1.2728427e-38
0.13673525 -0.044940956 1.0040001 1.3281601e-38
0.13823333 -0.044806667 1.001 1.0609369e-38
0.14014 -0.044806667 1.001 2.9104969e-42
0.14162096 -0.044672381 0.99800003 1.4004913e-39
0.1435219 -0.044672381 0.99800003 1.1726391e-38
0.14542286 -0.044672381 0.99800003 1.3925181e-38
0.14732382 -0.044672381 0.99800003 1.2818833e-38
0.14922476 -0.044672381 0.99800003 1.1992307e-38
0.15112571 -0.044672381 0.99800003 1.1992307e-38
0.15302667 -0.044672381 0.99800003 1.1900108e-38
0.15492763 -0.044672381 0.99800003 1.1715717e-38
0.15682857 -0.044672381 0.99800003 1.1900101e-38
0.15872952 -0.044672381 0.99800003 1.1807906e-38
0.16063048 -0.044672381 0.99800003 1.1346574e-38
0.16253144 -0.044672381 0.99800003 1.1530966e-38
0.16492666 -0.044806667 1.001 1.12533e-38
0.16683334 -0.044806667 1.001 1.1161104e-38
0.16874 -0.044806667 1.001 1.0884514e-38
0.17115811 -0.044940956 1.0040001 1.0884514e-38
0.17307049 -0.044940956 1.0040001 1.0884144e-38
0.17498286 -0.044940956 1.0040001 1.0423166e-38
0.17742382 -0.045075241 1.0070001 1.0145858e-38
0.17987618 -0.045209523 1.01 9.2239014e-39
0.18234 -0.045343809 1.013 8.7629106e-39
0.18426952 -0.045343809 1.013 9.2238888e-39
0.21178286 -0.046731427 1.044 1.3091054e-38
0.21377143 -0.046731427 1.044 1.0786163e-38
0.21576001 -0.046731427 1.044 9.4097122e-39
0.21774857 -0.046731427 1.044 1.0331668e-38
0.21973714 -0.046731427 1.044 1.1249682e-38
0.22108857 -0.046597145 1.041 1.3277985e-38
0.22307143 -0.046597145 1.041 1.3739287e-38
0.22505429 -0.046597145 1.041 1.4292461e-38
0.22638288 -0.04646286 1.0380001 1.4015152e-38
0.22836003 -0.04646286 1.0380001 1.4199544e-38
0.10084191 -0.044057142 1.028 1.4105919e-38
0.1028 -0.044057142 1.028 1.1249312e-38
0.10445239 -0.043928575 1.0250001 9.3132034e-39
0.10609334 -0.0438 1.0220001 9.4997722e-39
0.10772286 -0.043671433 1.0190001 1.060612e-38
0.10966381 -0.043671433 1.0190001 1.0698671e-38
0.11127619 -0.043542858 1.016 1.1528432e-38
0.11287715 -0.043414284 1.013 1.1896489e-38
0.11480667 -0.043414284 1.013 1.0882337e-38
0.11639047 -0.043285716 1.01 9.0384438e-39
0.11796286 -0.043157145 1.0070001 9.0384438e-39
0.11952382 -0.043028574 1.0040001 8.8572895e-39
0.1214362 -0.043028574 1.0040001 9.1338764e-39
0.12371716 -0.043157145 1.0070001 1.0056844e-38
0.12563524 -0.043157145 1.0070001 1.2546126e-38
0.12717335 -0.043028574 1.0040001 1.2635508e-38
0.12908572 -0.043028574 1.0040001 1.2451117e-38
0.1309981 -0.043028574 1.0040001 1.2176685e-38
0.13291049 -0.043028574 1.0040001 1.2176685e-38
0.13482286 -0.043028574 1.0040001 1.3187603e-38
0.13673525 -0.043028574 1.0040001 1.3925168e-38
0.13864763 -0.043028574 1.0040001 1.1345457e-38
0.14014 -0.0429 1.001 5.3949991e-42
0.14162096 -0.042771429 0.99800003 5.6972171e-40
0.1435219 -0.042771429 0.99800003 1.052685e-38
0.14542286 -0.042771429 0.99800003 1.4293585e-38
0.14732382 -0.042771429 0.99800003 1.3371629e-38
0.14922476 -0.042771429 0.99800003 1.236036e-38
0.15112571 -0.042771429 0.99800003 1.2268165e-38
0.15302667 -0.042771429 0.99800003 1.2175969e-38
0.15492763 -0.042771429 0.99800003 1.1346209e-38
0.15682857 -0.042771429 0.99800003 1.0976713e-38
0.15872952 -0.042771429 0.99800003 1.0884517e-38
0.16063048 -0.042771429 0.99800003 1.1621e-38
0.16253144 -0.042771429 0.99800003 1.2450761e-38
0.16492666 -0.0429 1.001 1.1897224e-38
0.16683334 -0.0429 1.001 1.1344051e-38
0.16874 -0.0429 1.001 1.1160378e-38
0.17115811 -0.043028574 1.0040001 1.0975987e-38
0.17307049 -0.043028574 1.0040001 1.0791946e-38
0.17550573 -0.043157145 1.0070001 1.0607555e-38
0.17795236 -0.043285716 1.01 9.6866774e-39
0.18041047 -0.043414284 1.013 8.4881342e-39
0.18234 -0.043414284 1.013 8.5792537e-39
0.18481524 -0.043542858 1.016 1.0423166e-38
0.21178286 -0.044742856 1.044 1.0420643e-38
0.21377143 -0.044742856 1.044 1.0697229e-38
0.21576001 -0.044742856 1.044 1.1067088e-38
0.21774857 -0.044742856 1.044 1.1528066e-38
0.21973714 -0.044742856 1.044 1.1896136e-38
0.22108857 -0.044614285 1.041 1.3740048e-38
0.22307143 -0.044614285 1.041 1.4291013e-38
0.22505429 -0.044614285 1.041 1.4291013e-38
0.22703715 -0.044614285 1.041 1.429066e-38
0.10143048 -0.042344764 1.034 1.447542e-38
0.1028 -0.042099047 1.028 1.2725135e-38
0.1047581 -0.042099047 1.028 9.4982883e-39
0.10640477 -0.041976195 1.0250001 9.4990366e-39
0.10804 -0.041853335 1.0220001 1.0974167e-38
0.10966381 -0.041730478 1.0190001 1.0974179e-38
0.11160477 -0.041730478 1.0190001 1.1527353e-38
0.11321143 -0.041607618 1.016 1.2079069e-38
0.11480667 -0.041484762 1.013 1.1525896e-38
0.11639047 -0.041361906 1.01 1.0146561e-38
0.11796286 -0.041239049 1.0070001 9.9621699e-39
0.11988096 -0.041239049 1.0070001 9.4093843e-39
0.12179905 -0.041239049 1.0070001 7.3810804e-39
0.12371716 -0.041239049 1.0070001 7.6557784e-39
0.12563524 -0.041239049 1.0070001 1.2449951e-38
0.12755334 -0.041239049 1.0070001 1.2911376e-38
0.12908572 -0.041116193 1.0040001 1.2634789e-38
0.1309981 -0.041116193 1.0040001 1.2177404e-38
0.13291049 -0.041116193 1.0040001 1.22696e-38
0.13482286 -0.041116193 1.0040001 1.3370925e-38
0.13673525 -0.041116193 1.0040001 1.2817751e-38
0.13864763 -0.041116193 1.0040001 9.2260468e-39
0.14014 -0.040993337 1.001 2.3113746e-39
0.14204666 -0.040993337 1.001 1.7614896e-39
0.14395334 -0.040993337 1.001 9.2293356e-39
0.14586 -0.040993337 1.001 1.189972e-38
0.14776668 -0.040993337 1.001 1.2637285e-38
0.14967334 -0.040993337 1.001 1.2728427e-38
0.15158001 -0.040993337 1.001 1.2636231e-38
0.15348667 -0.040993337 1.001 1.2542594e-38
0.15539335 -0.040993337 1.001 1.0422094e-38
0.15682857 -0.040870477 0.99800003 9.9607532e-39
0.15872952 -0.040870477 0.99800003 1.0052949e-38
0.16063048 -0.040870477 0.99800003 1.0975611e-38
0.16253144 -0.040870477 0.99800003 1.2081959e-38
0.16492666 -0.040993337 1.001 1.1989773e-38
0.16683334 -0.040993337 1.001 1.1436599e-38
0.16874 -0.040993337 1.001 1.1068183e-38
0.17115811 -0.041116193 1.0040001 1.0975987e-38
0.17358764 -0.041239049 1.0070001 1.0240214e-38
0.17550573 -0.041239049 1.0070001 1.0148019e-38
0.17848095 -0.041484762 1.013 1.0053662e-38
0.18041047 -0.041484762 1.013 8.9473145e-39
0.18288 -0.041607618 1.016 8.6710681e-39
0.18481524 -0.041607618 1.016 1.116035e-38
0.21100001 -0.043000001 1.0500001 1.0973428e-38
0.21239144 -0.042877145 1.0470001 9.6845166e-39
0.21438572 -0.042877145 1.0470001 1.0975255e-38
0.21576001 -0.042754289 1.044 1.1160716e-38
0.21774857 -0.042754289 1.044 1.1437303e-38
0.21973714 -0.042754289 1.044 1.2266335e-38
0.22108857 -0.042631429 1.041 1.3649269e-38
0.22307143 -0.042631429 1.041 1.4291376e-38
0.22505429 -0.042631429 1.041 1.4199181e-38
0.22703715 -0.042631429 1.041 1.4473985e-38
0.10143048 -0.04037524 1.034 1.5120071e-38
0.1031 -0.040258095 1.031 1.26333e-38
0.1047581 -0.040140949 1.028 9.0376702e-39
0.10640477 -0.040023815 1.0250001 9.0394975e-39
0.10804 -0.039906669 1.0220001 1.0791215e-38
0.10998667 -0.039906669 1.0220001 1.0974527e-38
0.11160477 -0.039789528 1.0190001 9.3150054e-39
0.11321143 -0.039672382 1.016 9.9603496e-39
0.11514667 -0.039672382 1.016 1.079011e-38
0.11639047 -0.039438095 1.01 1.0881605e-38
0.11831428 -0.039438095 1.01 1.1342583e-38
0.11988096 -0.039320953 1.0070001 9.4093815e-39
0.12179905 -0.039320953 1.0070001 2.9556874e-39
0.12371716 -0.039320953 1.0070001 1.5799822e-39
0.12563524 -0.039320953 1.0070001 9.2322195e-39
0.12755334 -0.039320953 1.0070001 1.3556386e-38
0.12908572 -0.039203811 1.0040001 1.3648581e-38
0.1309981 -0.039203811 1.0040001 1.3281228e-38
0.13291049 -0.039203811 1.0040001 1.3926597e-38
0.13482286 -0.039203811 1.0040001 1.3463484e-38
0.13673525 -0.039203811 1.0040001 8.392724e-39
0.13864763 -0.039203811 1.0040001 5.6329312e-39
0.14014 -0.039086666 1.001 6.0017137e-39
0.14204666 -0.039086666 1.001 5.998188e-39
0.14395334 -0.039086666 1.001 4.5230579e-39
0.14586 -0.039086666 1.001 7.7526739e-39
0.14776668 -0.039086666 1.001 1.1993673e-38
0.14967334 -0.039086666 1.001 1.3464903e-38
0.15158001 -0.039086666 1.001 1.3833686e-38
0.15348667 -0.039086666 1.001 1.3003209e-38
0.15539335 -0.039086666 1.001 8.1168406e-39
0.15730001 -0.039086666 1.001 7.8420558e-39
0.15920667 -0.039086666 1.001 8.6718164e-39
0.16111334 -0.039086666 1.001 8.6714241e-39
0.16302 -0.039086666 1.001 9.7777716e-39
0.16492666 -0.039086666 1.001 1.023735e-38
0.16733335 -0.039203811 1.0040001 1.1620284e-38
0.16924572 -0.039203811 1.0040001 1.1344401e-38
0.17166954 -0.039320953 1.0070001 1.0791227e-38
0.17358764 -0.039320953 1.0070001 1.0424242e-38
0.17602856 -0.039438095 1.01 1.0332047e-38
0.17848095 -0.03955524 1.013 9.7788731e-39
0.18094477 -0.039672382 1.016 8.4881342e-39
0.18342 -0.039789528 1.0190001 8.3955603e-39
0.18536097 -0.039789528 1.0190001 1.1530212e-38
0.20900001 -0.041000001 1.0500001 1.0884479e-38
0.21100001 -0.041000001 1.0500001 1.0146914e-38
0.21239144 -0.040882859 1.0470001 1.0606486e-38
0.21438572 -0.040882859 1.0470001 1.1712833e-38
0.21638 -0.040882859 1.0470001 1.2174142e-38
0.21774857 -0.040765714 1.044 1.328049e-38
0.21973714 -0.040765714 1.044 1.3739284e-38
0.22172572 -0.040765714 1.044 1.3923676e-38
0.22307143 -0.040648572 1.041 1.4198465e-38
0.22505429 -0.040648572 1.041 1.4198465e-38
0.10182287 -0.038554288 1.0380001 1.5857636e-38
0.1031 -0.038294286 1.031 1.2358521e-38
0.10506381 -0.038294286 1.031 8.762891e-39
0.10671619 -0.038182855 1.028 8.856544e-39
0.10835715 -0.038071431 1.0250001 1.042387e-38
0.11030953 -0.038071431 1.0250001 1.0883416e-38
0.11193334 -0.03796 1.0220001 9.0395031e-39
0.11388 -0.03796 1.0220001 7.5632815e-39
0.11548667 -0.037848573 1.0190001 8.2086509e-39
0.11742762 -0.037848573 1.0190001 9.6816201e-39
0.11901715 -0.037737142 1.016 1.0419185e-38
0.1202381 -0.037514284 1.01 8.5832137e-39
0.12216191 -0.037514284 1.01 3.2358672e-39
0.12408571 -0.037514284 1.01 2.0420156e-39
0.12563524 -0.037402861 1.0070001 8.3113184e-39
0.12755334 -0.037402861 1.0070001 1.3096121e-38
0.12947144 -0.037402861 1.0070001 1.2727338e-38
0.13138954 -0.037402861 1.0070001 1.2174517e-38
0.13291049 -0.03729143 1.0040001 1.2912083e-38
0.13482286 -0.03729143 1.0040001 1.3002856e-38
0.13714382 -0.037402861 1.0070001 6.9179443e-39
0.13864763 -0.03729143 1.0040001 1.9498227e-39
0.14056002 -0.03729143 1.0040001 6.2830173e-39
0.14247239 -0.03729143 1.0040001 8.1182951e-39
0.14438476 -0.03729143 1.0040001 7.2885345e-39
0.14629716 -0.03729143 1.0040001 6.366602e-39
0.14820953 -0.03729143 1.0040001 1.0238818e-38
0.15012191 -0.03729143 1.0040001 1.2543297e-38
0.1520343 -0.03729143 1.0040001 1.3280862e-38
0.15394668 -0.03729143 1.0040001 1.3002496e-38
0.15585905 -0.03729143 1.0040001 7.9317361e-39
0.15777142 -0.03729143 1.0040001 7.7501964e-39
0.15968382 -0.03729143 1.0040001 8.118979e-39
0.16159619 -0.03729143 1.0040001 8.3001248e-39
0.16350858 -0.03729143 1.0040001 9.5908636e-39
0.16542096 -0.03729143 1.0040001 8.9487396e-39
0.16783336 -0.037402861 1.0070001 1.0792652e-38
0.17025715 -0.037514284 1.01 1.1161098e-38
0.17218095 -0.037514284 1.01 1.0607925e-38
0.17462189 -0.037625715 1.013 1.01473e-38
0.17655143 -0.037625715 1.013 1.01473e-38
0.17900953 -0.037737142 1.016 9.5026463e-39
0.18094477 -0.037737142 1.016 8.3962987e-39
0.18342 -0.037848573 1.0190001 8.118979e-39
0.18536097 -0.037848573 1.0190001 1.1899e-38
0.18785335 -0.03796 1.0220001 1.3645659e-38
0.20778857 -0.039148569 1.054 1.1436577e-38
0.20900001 -0.039000005 1.0500001 9.5033526e-39
0.21100001 -0.039000005 1.0500001 1.0240918e-38
0.213 -0.039000005 1.0500001 1.0884142e-38
0.21438572 -0.03888857 1.0470001 1.134512e-38
0.21638 -0.03888857 1.0470001 1.2448928e-38
0.21774857 -0.038777143 1.044 1.3924058e-38
0.21973714 -0.038777143 1.044 1.4291379e-38
0.22172572 -0.038777143 1.044 1.4106988e-38
0.22371429 -0.038777143 1.044 1.3647092e-38
0.1041 -0.036682859 1.041 1.3462707e-38
0.10506381 -0.036330476 1.031 9.2217084e-39
0.10671619 -0.03622476 1.028 9.0405793e-39
0.10867429 -0.03622476 1.028 1.0331318e-38
0.11030953 -0.036119051 1.0250001 1.0974532e-38
0.11193334 -0.036013335 1.0220001 9.5915979e-39
0.11388 -0.036013335 1.0220001 7.3792755e-39
0.11548667 -0.035907622 1.0190001 6.6417105e-39
0.11742762 -0.035907622 1.0190001 5.9995655e-39
0.11901715 -0.035801906 1.016 3.9712616e-39
0.12095239 -0.035801906 1.016 6.8332568e-39
0.12216191 -0.035590474 1.01 7.1098437e-39
0.12408571 -0.035590474 1.01 3.9774217e-39
0.12600952 -0.035590474 1.01 4.3462043e-39
0.12755334 -0.035484765 1.0070001 7.6562156e-39
0.12947144 -0.035484765 1.0070001 8.5781719e-39
0.13138954 -0.035484765 1.0070001 7.65944e-39
0.13330762 -0.035484765 1.0070001 8.2126137e-39
0.13522573 -0.035484765 1.0070001 9.3189613e-39
0.13714382 -0.035484765 1.0070001 6.1843099e-39
0.13906191 -0.035484765 1.0070001 6.8290151e-39
0.14056002 -0.035379048 1.0040001 8.0275583e-39
0.14247239 -0.035379048 1.0040001 9.4979772e-39
0.14438476 -0.035379048 1.0040001 1.4199954e-38
0.14629716 -0.035379048 1.0040001 1.3830426e-38
0.14820953 -0.035379048 1.0040001 8.1142972e-39
0.15012191 -0.035379048 1.0040001 8.8547209e-39
0.1520343 -0.035379048 1.0040001 1.1344003e-38
0.15394668 -0.035379048 1.0040001 1.1343665e-38
0.15585905 -0.035379048 1.0040001 6.8260793e-39
0.15777142 -0.035379048 1.0040001 4.8946599e-39
0.16016097 -0.035484765 1.0070001 5.8166162e-39
0.16207907 -0.035484765 1.0070001 8.299434e-39
0.16399716 -0.035484765 1.0070001 9.9589553e-39
0.16591525 -0.035484765 1.0070001 8.8558153e-39
0.16833334 -0.035590474 1.01 1.0330945e-38
0.17025715 -0.035590474 1.01 1.1252571e-38
0.17218095 -0.035590474 1.01 1.0883788e-38
0.17462189 -0.03569619 1.013 1.0330971e-38
0.17655143 -0.03569619 1.013 1.0238775e-38
0.17900953 -0.035801906 1.016 9.9618224e-39
0.18147905 -0.035907622 1.0190001 8.9476704e-39
0.18342 -0.035907622 1.0190001 8.6717968e-39
0.18536097 -0.035907622 1.0190001 1.2175231e-38
0.18785335 -0.036013335 1.0220001 1.3922597e-38
0.20636667 -0.037246667 1.057 1.0883776e-38
0.20778857 -0.037140954 1.054 1.0514993e-38
0.20979621 -0.037140954 1.054 1.1252927e-38
0.21180381 -0.037140954 1.054 1.1898296e-38
0.21381143 -0.037140954 1.054 1.1990477e-38
0.21500002 -0.037 1.0500001 1.2820237e-38
0.21638 -0.036894288 1.0470001 1.3370512e-38
0.21774857 -0.036788572 1.044 1.383149e-38
0.21973714 -0.036788572 1.044 1.4106632e-38
0.22172572 -0.036788572 1.044 1.4106632e-38
0.10506381 -0.034366667 1.031 9.5886958e-39
0.10671619 -0.034266666 1.028 9.3164376e-39
0.10867429 -0.034266666 1.028 1.0422785e-38
0.11030953 -0.034166671 1.0250001 1.0790854e-38
0.11226191 -0.034166671 1.0250001 9.8688981e-39
0.11388 -0.03406667 1.0220001 8.5767243e-39
0.11582667 -0.03406667 1.0220001 7.8391593e-39
0.11742762 -0.033966668 1.0190001 6.5538183e-39
0.11936858 -0.033966668 1.0190001 6.5538183e-39
0.12095239 -0.033866666 1.016 7.2917589e-39
0.12252476 -0.033766668 1.013 7.4761501e-39
0.12408571 -0.033666667 1.01 3.6093385e-39
0.12600952 -0.033666667 1.01 3.8859254e-39
0.12793334 -0.033666667 1.01 6.2743629e-39
0.12947144 -0.033566669 1.0070001 7.1041236e-39
0.13138954 -0.033566669 1.0070001 8.9437048e-39
0.13330762 -0.033566669 1.0070001 9.0359004e-39
0.13522573 -0.033566669 1.0070001 9.5941525e-39
0.13714382 -0.033566669 1.0070001 8.6721962e-39
0.13906191 -0.033566669 1.0070001 8.5810712e-39
0.14098001 -0.033566669 1.0070001 7.8435061e-39
0.14289811 -0.033566669 1.0070001 8.027882e-39
0.14438476 -0.033466671 1.0040001 1.3283033e-38
0.14629716 -0.033466671 1.0040001 1.3922664e-38
0.14820953 -0.033466671 1.0040001 8.1143393e-39
0.15012191 -0.033466671 1.0040001 6.7335278e-39
0.1520343 -0.033466671 1.0040001 8.8540273e-39
0.15394668 -0.033466671 1.0040001 1.0049361e-38
0.15632477 -0.033566669 1.0070001 6.177145e-39
0.15824287 -0.033566669 1.0070001 4.6115051e-39
0.16016097 -0.033566669 1.0070001 8.3915203e-39
0.16207907 -0.033566669 1.0070001 9.1284786e-39
0.16448571 -0.033666667 1.01 1.0142631e-38
0.16640952 -0.033666667 1.01 8.3030143e-39
0.16883335 -0.033766668 1.013 1.0239123e-38
0.17076285 -0.033766668 1.013 1.0976337e-38
0.17269237 -0.033766668 1.013 1.0054381e-38
0.17513905 -0.033866666 1.016 9.2264153e-39
0.1770743 -0.033866666 1.016 9.7795891e-39
0.17900953 -0.033866666 1.016 9.6852355e-39
0.18147905 -0.033966668 1.0190001 8.6710836e-39
0.18342 -0.033966668 1.0190001 9.1295478e-39
0.18536097 -0.033966668 1.0190001 1.309396e-38
0.18785335 -0.03406667 1.0220001 1.4014429e-38
0.20435335 -0.035233337 1.057 1.1986173e-38
0.20636667 -0.035233337 1.057 9.5029966e-39
0.20778857 -0.035133332 1.054 1.070154e-38
0.20979621 -0.035133332 1.054 1.1620988e-38
0.21180381 -0.035133332 1.054 1.1620988e-38
0.21381143 -0.035133332 1.054 1.1989748e-38
0.21500002 -0.035000004 1.0500001 1.3372682e-38
0.21638 -0.034899998 1.0470001 1.4014436e-38
0.2183743 -0.034899998 1.0470001 1.4014436e-38
0.10506381 -0.032402854 1.031 9.4046577e-39
0.10671619 -0.032308571 1.028 8.8554594e-39
0.10867429 -0.032308571 1.028 1.0238394e-38
0.11030953 -0.032214291 1.0250001 1.0606823e-38
0.11226191 -0.032214291 1.0250001 1.1344388e-38
0.11421429 -0.032214291 1.0250001 1.1066722e-38
0.11582667 -0.032120001 1.0220001 1.0974527e-38
0.11777334 -0.032120001 1.0220001 1.1067814e-38
0.11936858 -0.032025717 1.0190001 1.1713183e-38
0.12095239 -0.031931426 1.016 1.1898296e-38
0.12252476 -0.031837143 1.013 9.8699925e-39
0.12445429 -0.031837143 1.013 7.8427424e-39
0.12600952 -0.031742856 1.01 8.0271337e-39
0.12793334 -0.031742856 1.01 7.0101399e-39
