# .PCD v0.7 - Point Cloud Data file format
VERSION 0.7
FIELDS x y z rgb u v
SIZE 4 4 4 4 4 4
TYPE F F F F U U
COUNT 1 1 1 1 1 1
WIDTH 850
HEIGHT 1
VIEWPOINT 0 0 0 1 0 0 0
POINTS 850
DATA ascii
-0.073080003 0.027720001 0.88200003 6.364032e-39 276 256
-0.071400002 0.027720001 0.88200003 6.364032e-39 277 256
-0.06972 0.027720001 0.88200003 6.4565808e-39 278 256
-0.068039998 0.027720001 0.88200003 6.5487764e-39 279 256
-0.066360004 0.027720001 0.88200003 6.9154009e-39 280 256
-0.064680003 0.027720001 0.88200003 6.9154009e-39 281 256
-0.063000001 0.027720001 0.88200003 6.4569339e-39 282 256
-0.061319999 0.027720001 0.88200003 6.917912e-39 283 256
-0.059504766 0.027657144 0.88000005 8.204695e-39 284 256
-0.057828575 0.027657144 0.88000005 8.8500644e-39 285 256
-0.05602476 0.027594287 0.87800002 1.1058794e-38 286 256
-0.05435238 0.027594287 0.87800002 1.0782207e-38 287 256
-0.052680001 0.027594287 0.87800002 9.5883483e-39 288 256
-0.050833337 0.027500002 0.87500006 1.0971283e-38 289 256
-0.049166668 0.027500002 0.87500006 1.1711363e-38 290 256
-0.047500003 0.027500002 0.87500006 1.1526972e-38 291 256
-0.045833338 0.027500002 0.87500006 1.0424242e-38 292 256
-0.044065714 0.027437143 0.87300003 1.0424242e-38 293 256
-0.042305715 0.027374288 0.87100005 1.0240199e-38 294 256
-0.040460002 0.027248573 0.86700004 1.0055807e-38 295 256
-0.036122859 0.025362857 0.80700004 1.0054366e-38 296 256
-0.034585718 0.025362857 0.80700004 9.9621699e-39 297 256
-0.033130478 0.025425715 0.80900002 9.9614566e-39 298 256
-0.031589523 0.025425715 0.80900002 9.869261e-39 299 256
-0.030048572 0.025425715 0.80900002 9.592321e-39 300 256
-0.028578097 0.025488574 0.81100005 9.3157341e-39 301 256
-0.027033335 0.025488574 0.81100005 9.2238888e-39 302 256
-0.025551429 0.025551429 0.81300002 9.0394975e-39 303 256
-0.02394381 0.025488574 0.81100005 9.0384087e-39 304 256
-0.022399049 0.025488574 0.81100005 8.4852349e-39 305 256
-0.020854287 0.025488574 0.81100005 1.0420239e-38 306 256
-0.019309524 0.025488574 0.81100005 1.3186108e-38 307 256
-0.017720953 0.025425715 0.80900002 1.3368354e-38 308 256
0.24225715 0.01917143 0.61000001 8.2976067e-40 528 256
0.24302 0.01914 0.60900003 8.2976067e-40 529 256
0.24418001 0.01914 0.60900003 5.5497165e-40 530 256
0.2445343 0.019077145 0.60700005 4.6277602e-40 531 256
0.24407145 0.018951431 0.60300004 7.3756504e-40 532 256
0.244 0.018857144 0.60000002 7.3756504e-40 533 256
0.24514288 0.018857144 0.60000002 7.3756504e-40 534 256
0.24628572 0.018857144 0.60000002 7.3756504e-40 535 256
0.24742858 0.018857144 0.60000002 3.7058039e-40 536 256
0.24194288 0.018354287 0.58400005 3.7058039e-40 537 256
0.24305525 0.018354287 0.58400005 3.7023006e-40 538 256
0.24374951 0.018322857 0.583 3.7023006e-40 539 256
0.24444002 0.018291429 0.58200002 3.7058039e-40 540 256
0.24512669 0.01826 0.58100003 3.7058039e-40 541 256
0.24580953 0.018228572 0.58000004 6.4536941e-40 542 256
0.24478574 0.01807143 0.57500005 6.4536941e-40 543 256
0.24502572 0.018008571 0.57300001 6.4536941e-40 544 256
0.24568763 0.017977145 0.57200003 6.4536941e-40 545 256
0.24634573 0.017945714 0.57100004 3.7023006e-40 546 256
0.24656665 0.017882857 0.56900001 2.7803443e-40 547 256
0.24678001 0.017820001 0.56700003 2.7838195e-40 548 256
0.24654858 0.017725714 0.56400001 2.7838195e-40 549 256
0.24674478 0.017662859 0.56200004 2.7838195e-40 550 256
0.24693333 0.0176 0.56 1.8618632e-40 551 256
0.24667142 0.017505715 0.55700004 4.6097815e-40 552 256
0.24684285 0.017442858 0.55500001 4.6097815e-40 553 256
0.24611333 0.017317142 0.551 4.6062782e-40 554 256
0.24671429 0.017285714 0.55000001 4.6062782e-40 555 256
0.24641049 0.017191431 0.54700005 4.6097815e-40 556 256
0.24609526 0.017097143 0.54400003 4.6097815e-40 557 256
0.24713144 0.017097143 0.54400003 4.6097815e-40 558 256
0.24816763 0.017097143 0.54400003 4.6097815e-40 559 256
0.24645525 0.016908573 0.53800005 3.6878252e-40 560 256
0.24702001 0.016877143 0.537 3.6878252e-40 561 256
0.24758095 0.016845714 0.53600001 3.6878252e-40 562 256
0.2481381 0.016814286 0.53500003 3.6878252e-40 563 256
0.24869144 0.016782859 0.53400004 2.7802182e-40 564 256
0.24830572 0.016688572 0.53100002 2.7802182e-40 565 256
0.24837811 0.016625715 0.52900004 3.6878252e-40 566 256
0.24938573 0.016625715 0.52900004 4.6097815e-40 567 256
0.25039336 0.016625715 0.52900004 3.6842939e-40 568 256
0.24820001 0.016028574 0.51000005 1.8582619e-40 575 256
0.24819429 0.015965713 0.50800002 2.7802182e-40 576 256
0.2491619 0.015965713 0.50800002 2.7802182e-40 577 256
0.24963716 0.015934287 0.50700003 2.7802182e-40 578 256
0.25060287 0.015934287 0.50700003 2.7802182e-40 579 256
0.2505762 0.015871428 0.505 2.7802182e-40 580 256
0.25104001 0.01584 0.50400001 2.7802182e-40 581 256
0.25150001 0.015808573 0.50300002 1.8582619e-40 582 256
0.25245813 0.015808573 0.50300002 1.8582619e-40 583 256
-0.11438 0.027233334 0.81700003 1.3276171e-38 246 257
-0.11282381 0.027233334 0.81700003 1.1340062e-38 247 257
-0.11099524 0.027166668 0.81500006 8.9454942e-39 248 257
-0.10944287 0.027166668 0.81500006 7.1937773e-39 249 257
-0.10789049 0.027166668 0.81500006 7.4707173e-39 250 257
-0.10607715 0.027100001 0.81300002 8.1160867e-39 251 257
-0.10427143 0.027033335 0.81100005 8.3908841e-39 252 257
-0.10272667 0.027033335 0.81100005 8.2064929e-39 253 257
-0.10093238 0.026966667 0.80900002 8.8507805e-39 254 257
-0.099145718 0.026900001 0.80700004 9.6805411e-39 255 257
-0.097608574 0.026900001 0.80700004 9.6816201e-39 256 257
-0.10345238 0.028966667 0.86900002 1.0050403e-38 257 257
-0.10179714 0.028966667 0.86900002 9.6837753e-39 258 257
-0.10014191 0.028966667 0.86900002 1.0697927e-38 259 257
-0.098713338 0.029033335 0.87100005 1.0973801e-38 260 257
-0.09727715 0.029100001 0.87300003 1.1803562e-38 261 257
-0.095614292 0.029100001 0.87300003 1.1341877e-38 262 257
-0.094166674 0.029166669 0.87500006 1.1526268e-38 263 257
-0.092500009 0.029166669 0.87500006 1.0972727e-38 264 257
-0.090833336 0.029166669 0.87500006 1.0696141e-38 265 257
-0.089472376 0.029266668 0.87800002 1.042063e-38 266 257
-0.087800004 0.029266668 0.87800002 9.5908692e-39 267 257
-0.086127624 0.029266668 0.87800002 9.4057815e-39 268 257
-0.084455237 0.029266668 0.87800002 9.3135859e-39 269 257
-0.082782857 0.029266668 0.87800002 9.2217434e-39 270 257
-0.081295244 0.029333334 0.88000005 9.313939e-39 271 257
-0.07961905 0.029333334 0.88000005 9.0373521e-39 272 257
-0.078120001 0.0294 0.88200003 9.0373521e-39 273 257
-0.076439999 0.0294 0.88200003 9.2217434e-39 274 257
-0.074759997 0.0294 0.88200003 9.313939e-39 275 257
-0.073080003 0.0294 0.88200003 9.2217434e-39 276 257
-0.071400002 0.0294 0.88200003 9.313939e-39 277 257
-0.06972 0.0294 0.88200003 1.0144037e-38 278 257
-0.068039998 0.0294 0.88200003 1.0420624e-38 279 257
-0.066360004 0.0294 0.88200003 1.1710993e-38 280 257
-0.064680003 0.0294 0.88200003 1.1803189e-38 281 257
-0.063000001 0.0294 0.88200003 1.1803564e-38 282 257
-0.055340957 0.026533335 0.79600006 1.2541129e-38 283 257
-0.053824764 0.026533335 0.79600006 1.2171268e-38 284 257
-0.052308574 0.026533335 0.79600006 1.2171268e-38 285 257
-0.05602476 0.029266668 0.87800002 1.2170918e-38 286 257
-0.05435238 0.029266668 0.87800002 1.1894331e-38 287 257
-0.052680001 0.029266668 0.87800002 1.1434426e-38 288 257
-0.046360001 0.026600001 0.79800004 1.1434426e-38 289 257
-0.044840001 0.026600001 0.79800004 1.0883416e-38 290 257
-0.043320004 0.026600001 0.79800004 1.0606829e-38 291 257
-0.041800003 0.026600001 0.79800004 1.0238772e-38 292 257
-0.040280003 0.026600001 0.79800004 1.0238772e-38 293 257
-0.038954284 0.026733335 0.80200005 1.0146574e-38 294 257
-0.037473332 0.026766667 0.80300003 1.0146574e-38 295 257
-0.03594381 0.026766667 0.80300003 1.0146927e-38 296 257
-0.034500003 0.026833337 0.80500007 9.9625356e-39 297 257
-0.03304857 0.026900001 0.80700004 1.0146201e-38 298 257
-0.031589523 0.026966667 0.80900002 9.7774185e-39 299 257
-0.030048572 0.026966667 0.80900002 9.4075766e-39 300 257
-0.028578097 0.027033335 0.81100005 9.2231853e-39 301 257
-0.027033335 0.027033335 0.81100005 9.1316932e-39 302 257
-0.025551429 0.027100001 0.81300002 8.9473019e-39 303 257
-0.02394381 0.027033335 0.81100005 8.761819e-39 304 257
-0.022399049 0.027033335 0.81100005 8.3008409e-39 305 257
-0.020802857 0.026966667 0.80900002 1.0235497e-38 306 257
-0.019261904 0.026966667 0.80900002 1.3277953e-38 307 257
-0.017720953 0.026966667 0.80900002 1.3368707e-38 308 257
0.24418001 0.020300001 0.60900003 8.2976067e-40 530 257
0.2445343 0.020233335 0.60700005 8.2976067e-40 531 257
0.24407145 0.020100001 0.60300004 5.5497165e-40 532 257
0.24481335 0.020066667 0.60200006 4.6277602e-40 533 257
0.24514288 0.02 0.60000002 6.4536941e-40 534 257
0.24628572 0.02 0.60000002 6.4536941e-40 535 257
0.24742858 0.02 0.60000002 3.7058039e-40 536 257
0.24898571 0.020033333 0.60100001 3.7058039e-40 537 257
0.24263903 0.019433334 0.583 6.4501908e-40 538 257
0.24374951 0.019433334 0.583 6.4501908e-40 539 257
0.24444002 0.019400001 0.58200002 3.7058039e-40 540 257
0.24554859 0.019400001 0.58200002 3.7058039e-40 541 257
0.24580953 0.019333335 0.58000004 6.4536941e-40 542 257
0.24606284 0.019266667 0.57800001 6.4536941e-40 543 257
0.24502572 0.019099999 0.57300001 6.4536941e-40 544 257
0.24568763 0.019066667 0.57200003 6.4536941e-40 545 257
0.24634573 0.019033333 0.57100004 3.7058039e-40 546 257
0.24700004 0.019000003 0.57000005 2.7838476e-40 547 257
0.24765046 0.018966667 0.56900001 2.7838195e-40 548 257
0.24742286 0.018866668 0.56600004 2.7838195e-40 549 257
0.2471838 0.018766666 0.56300002 5.5317378e-40 550 257
0.2473743 0.018700002 0.56100005 4.6097815e-40 551 257
0.24711429 0.0186 0.55800003 4.6097815e-40 552 257
0.24728765 0.018533334 0.55600005 4.6097815e-40 553 257
0.24656002 0.0184 0.55200005 4.6062782e-40 554 257
0.24716285 0.018366667 0.551 4.6062782e-40 555 257
0.24776189 0.018333333 0.55000001 4.6097815e-40 556 257
0.24835716 0.018300001 0.54900002 4.6097815e-40 557 257
0.24940287 0.018300001 0.54900002 4.6097815e-40 558 257
0.25044858 0.018300001 0.54900002 3.6878252e-40 559 257
0.24645525 0.017933335 0.53800005 2.7802182e-40 560 257
0.24702001 0.017899999 0.537 2.7802182e-40 561 257
0.24758095 0.017866667 0.53600001 3.6878252e-40 562 257
0.2481381 0.017833333 0.53500003 4.6097815e-40 563 257
0.24869144 0.0178 0.53400004 1.8582619e-40 564 257
0.24877334 0.017733334 0.53200001 1.8582619e-40 565 257
0.24884762 0.017666668 0.53000003 3.6878252e-40 566 257
0.24938573 0.017633334 0.52900004 3.6878252e-40 567 257
0.25039336 0.017633334 0.52900004 4.6097815e-40 568 257
0.25092569 0.0176 0.528 4.6097815e-40 569 257
0.2519314 0.0176 0.528 2.7802182e-40 570 257
0.24820001 0.017000003 0.51000005 2.7802182e-40 575 257
0.24917147 0.017000003 0.51000005 2.7802182e-40 576 257
0.24965239 0.016966667 0.509 2.7802182e-40 577 257
0.25012955 0.016933333 0.50800002 2.7802182e-40 578 257
0.25060287 0.016900001 0.50700003 2.7802182e-40 579 257
0.2505762 0.016833333 0.505 1.8582619e-40 580 257
0.25104001 0.016799999 0.50400001 1.8582619e-40 581 257
0.25150001 0.016766667 0.50300002 2.7802182e-40 582 257
0.25245813 0.016766667 0.50300002 1.8582619e-40 583 257
-0.11438 0.028789526 0.81700003 1.2999584e-38 246 258
-0.11282381 0.028789526 0.81700003 1.1247867e-38 247 258
-0.11099524 0.028719049 0.81500006 9.8670652e-39 248 258
-0.10944287 0.028719049 0.81500006 7.7465657e-39 249 258
-0.10762572 0.028648572 0.81300002 7.6547554e-39 250 258
-0.10607715 0.028648572 0.81300002 8.3001248e-39 251 258
-0.10427143 0.028578097 0.81100005 8.6678213e-39 252 258
-0.10272667 0.028578097 0.81100005 8.5756257e-39 253 258
-0.10068286 0.028437143 0.80700004 8.6678213e-39 254 258
-0.098654293 0.028296191 0.80300003 9.2209951e-39 255 258
-0.097124763 0.028296191 0.80300003 8.9458502e-39 256 258
-0.095476195 0.028260954 0.80200005 9.4990239e-39 257 258
-0.093714289 0.028190477 0.80000001 9.4086332e-39 258 258
-0.092190482 0.028190477 0.80000001 9.961807e-39 259 258
-0.090666667 0.028190477 0.80000001 1.0054366e-38 260 258
-0.09727715 0.030762859 0.87300003 1.0423148e-38 261 258
-0.095614292 0.030762859 0.87300003 1.0606463e-38 262 258
-0.094166674 0.030833337 0.87500006 1.0790854e-38 263 258
-0.092500009 0.030833337 0.87500006 1.1158195e-38 264 258
-0.090833336 0.030833337 0.87500006 1.1250391e-38 265 258
-0.089472376 0.030939048 0.87800002 1.1434426e-38 266 258
-0.087800004 0.030939048 0.87800002 1.1526622e-38 267 258
-0.086127624 0.030939048 0.87800002 1.1711369e-38 268 258
-0.084455237 0.030939048 0.87800002 1.1803564e-38 269 258
-0.082782857 0.030939048 0.87800002 1.1712448e-38 270 258
-0.081295244 0.031009525 0.88000005 1.1528056e-38 271 258
-0.07961905 0.031009525 0.88000005 1.1159284e-38 272 258
-0.078120001 0.031080002 0.88200003 1.1435871e-38 273 258
-0.076439999 0.031080002 0.88200003 1.1896849e-38 274 258
-0.074759997 0.031080002 0.88200003 1.1804653e-38 275 258
-0.073080003 0.031080002 0.88200003 1.1804293e-38 276 258
-0.071642861 0.031185716 0.88500005 1.1804293e-38 277 258
-0.06972 0.031080002 0.88200003 1.2079795e-38 278 258
-0.068039998 0.031080002 0.88200003 1.2171991e-38 279 258
-0.05973905 0.027979048 0.79400003 1.1896483e-38 280 258
-0.058226667 0.027979048 0.79400003 1.1804287e-38 281 258
-0.056857146 0.028049525 0.79600006 1.1437303e-38 282 258
-0.055340957 0.028049525 0.79600006 1.1621694e-38 283 258
-0.053824764 0.028049525 0.79600006 1.1344754e-38 284 258
-0.052308574 0.028049525 0.79600006 1.1068167e-38 285 258
-0.050792385 0.028049525 0.79600006 1.0976337e-38 286 258
-0.049276195 0.028049525 0.79600006 1.0884142e-38 287 258
-0.047880001 0.02812 0.79800004 1.0791943e-38 288 258
-0.046360001 0.02812 0.79800004 1.0699748e-38 289 258
-0.044840001 0.02812 0.79800004 1.0515356e-38 290 258
-0.043320004 0.02812 0.79800004 1.0330965e-38 291 258
-0.041800003 0.02812 0.79800004 1.0238769e-38 292 258
-0.040280003 0.02812 0.79800004 1.0238769e-38 293 258
-0.038954284 0.028260954 0.80200005 1.0238769e-38 294 258
-0.037473332 0.028296191 0.80300003 1.0238769e-38 295 258
-0.03594381 0.028296191 0.80300003 1.0146927e-38 296 258
-0.034500003 0.028366668 0.80500007 1.0146927e-38 297 258
-0.03304857 0.028437143 0.80700004 9.6866746e-39 298 258
-0.031589523 0.02850762 0.80900002 9.594479e-39 299 258
-0.030048572 0.02850762 0.80900002 9.3168131e-39 300 258
-0.028578097 0.028578097 0.81100005 9.3168131e-39 301 258
-0.027033335 0.028578097 0.81100005 9.1331309e-39 302 258
-0.025551429 0.028648572 0.81300002 8.6721527e-39 303 258
-0.024002858 0.028648572 0.81300002 8.5788725e-39 304 258
-0.022399049 0.028578097 0.81100005 8.21009e-39 305 258
-0.020802857 0.02850762 0.80900002 1.0051109e-38 306 258
-0.019261904 0.02850762 0.80900002 1.3093565e-38 307 258
-0.017720953 0.02850762 0.80900002 1.3183962e-38 308 258
0.2445343 0.021389525 0.60700005 5.5497165e-40 531 258
0.24407145 0.021248572 0.60300004 4.6277602e-40 532 258
0.24481335 0.021213336 0.60200006 4.6277602e-40 533 258
0.24514288 0.021142857 0.60000002 6.4536941e-40 534 258
0.24628572 0.021142857 0.60000002 6.4536941e-40 535 258
0.24784096 0.021178095 0.60100001 6.4536941e-40 536 258
0.24898571 0.021178095 0.60100001 6.4536941e-40 537 258
0.24347144 0.020614285 0.58500004 6.4536941e-40 538 258
0.24416766 0.020579049 0.58400005 6.4536941e-40 539 258
0.24444002 0.020508572 0.58200002 3.7058039e-40 540 258
0.24554859 0.020508572 0.58200002 3.7058039e-40 541 258
0.24580953 0.020438096 0.58000004 3.7058039e-40 542 258
0.24648859 0.02040286 0.57900006 3.7058039e-40 543 258
0.24502572 0.020191429 0.57300001 3.7058039e-40 544 258
0.24568763 0.020156192 0.57200003 3.7058039e-40 545 258
0.24634573 0.020120952 0.57100004 2.7803163e-40 546 258
0.24700004 0.020085717 0.57000005 2.7803163e-40 547 258
0.24808574 0.020085717 0.57000005 2.7838195e-40 548 258
0.24742286 0.019944763 0.56600004 2.7838195e-40 549 258
0.2471838 0.019839048 0.56300002 5.5317378e-40 550 258
0.24693333 0.019733332 0.56 5.5317378e-40 551 258
0.24711429 0.019662859 0.55800003 4.6097815e-40 552 258
0.24728765 0.019592384 0.55600005 4.6097815e-40 553 258
0.24745335 0.019521905 0.55400002 4.6097815e-40 554 258
0.24806 0.019486668 0.55300003 4.6097815e-40 555 258
0.24866286 0.01945143 0.55200005 5.5317378e-40 556 258
0.24880952 0.019380953 0.55000001 5.5317378e-40 557 258
0.24985714 0.019380953 0.55000001 2.7802182e-40 558 258
0.25090477 0.019380953 0.55000001 1.8582619e-40 559 258
0.24645525 0.018958097 0.53800005 1.8618632e-40 560 258
0.24702001 0.018922856 0.537 1.8618632e-40 561 258
0.24758095 0.01888762 0.53600001 2.7802182e-40 562 258
0.2481381 0.018852381 0.53500003 2.7802182e-40 563 258
0.24869144 0.018817144 0.53400004 2.7802182e-40 564 258
0.24877334 0.018746667 0.53200001 2.7802182e-40 565 258
0.24884762 0.018676192 0.53000003 2.7802182e-40 566 258
0.24938573 0.018640954 0.52900004 2.7802182e-40 567 258
0.25039336 0.018640954 0.52900004 4.6097815e-40 568 258
0.25092569 0.018605713 0.528 4.6097815e-40 569 258
0.2519314 0.018605713 0.528 4.6097815e-40 570 258
0.24966 0.018006667 0.51100004 3.6878252e-40 576 258
0.25014287 0.017971432 0.51000005 3.6878252e-40 577 258
0.25062191 0.017936191 0.509 2.7802182e-40 578 258
0.25060287 0.017865716 0.50700003 2.7802182e-40 579 258
0.2505762 0.017795237 0.505 2.7802182e-40 580 258
0.25104001 0.017760001 0.50400001 2.7802182e-40 581 258
0.25150001 0.017724762 0.50300002 2.7802182e-40 582 258
0.25245813 0.017724762 0.50300002 1.8582619e-40 583 258
-0.11950572 0.030865714 0.83100003 1.6500494e-38 244 259
-0.11792286 0.030865714 0.83100003 1.5301951e-38 245 259
-0.11438 0.030345716 0.81700003 1.5210461e-38 246 259
-0.11282381 0.030345716 0.81700003 1.1707028e-38 247 259
-0.11099524 0.03027143 0.81500006 8.8525629e-39 248 259
-0.10944287 0.03027143 0.81500006 7.7462154e-39 249 259
-0.10762572 0.030197144 0.81300002 7.930992e-39 250 259
-0.10607715 0.030197144 0.81300002 8.4841658e-39 251 259
-0.10427143 0.030122858 0.81100005 8.4848692e-39 252 259
-0.10247333 0.030048572 0.80900002 8.5770648e-39 253 259
-0.10068286 0.029974287 0.80700004 8.6689101e-39 254 259
-0.098654293 0.029825715 0.80300003 8.8533014e-39 255 259
-0.097124763 0.029825715 0.80300003 9.0376927e-39 256 259
-0.095476195 0.029788572 0.80200005 9.2220839e-39 257 259
-0.093714289 0.029714286 0.80000001 8.9473047e-39 258 259
-0.092190482 0.029714286 0.80000001 9.5926741e-39 259 259
-0.090666667 0.029714286 0.80000001 9.5941034e-39 260 259
-0.089142852 0.029714286 0.80000001 9.7784947e-39 261 259
-0.087400004 0.029640002 0.79800004 9.9618098e-39 262 259
-0.085880004 0.029640002 0.79800004 1.0054005e-38 263 259
-0.084360003 0.029640002 0.79800004 1.0605018e-38 264 259
-0.090833336 0.032500003 0.87500006 1.078941e-38 265 259
-0.089472376 0.03261143 0.87800002 1.0974151e-38 266 259
-0.087800004 0.03261143 0.87800002 1.0974151e-38 267 259
-0.086127624 0.03261143 0.87800002 1.0975586e-38 268 259
-0.084455237 0.03261143 0.87800002 1.1159977e-38 269 259
-0.074674286 0.029417144 0.79200006 1.1067794e-38 270 259
-0.073165715 0.029417144 0.79200006 1.1067794e-38 271 259
-0.071657151 0.029417144 0.79200006 1.0883776e-38 272 259
-0.07014858 0.029417144 0.79200006 1.1252558e-38 273 259
-0.068640009 0.029417144 0.79200006 1.1436224e-38 274 259
-0.074759997 0.032760002 0.88200003 1.1436224e-38 275 259
-0.073080003 0.032760002 0.88200003 1.1435518e-38 276 259
-0.071642861 0.032871433 0.88500005 1.1343322e-38 277 259
-0.06972 0.032760002 0.88200003 1.1527701e-38 278 259
-0.061097149 0.029417144 0.79200006 1.1527701e-38 279 259
-0.059588574 0.029417144 0.79200006 1.1251833e-38 280 259
-0.058226667 0.02949143 0.79400003 1.1067441e-38 281 259
-0.056714289 0.02949143 0.79400003 1.0976325e-38 282 259
-0.055201907 0.02949143 0.79400003 1.0884129e-38 283 259
-0.053824764 0.029565716 0.79600006 1.0791583e-38 284 259
-0.052308574 0.029565716 0.79600006 1.0791583e-38 285 259
-0.050792385 0.029565716 0.79600006 1.0516438e-38 286 259
-0.049276195 0.029565716 0.79600006 1.0424242e-38 287 259
-0.047760002 0.029565716 0.79600006 1.042424e-38 288 259
-0.046360001 0.029640002 0.79800004 1.042424e-38 289 259
-0.044840001 0.029640002 0.79800004 1.042424e-38 290 259
-0.043320004 0.029640002 0.79800004 1.042424e-38 291 259
-0.041904762 0.029714286 0.80000001 1.0423161e-38 292 259
-0.040380955 0.029714286 0.80000001 1.0330965e-38 293 259
-0.038954284 0.029788572 0.80200005 1.0330965e-38 294 259
-0.037473332 0.029825715 0.80300003 1.0238769e-38 295 259
-0.03594381 0.029825715 0.80300003 1.0239478e-38 296 259
-0.034500003 0.029900001 0.80500007 1.0055087e-38 297 259
-0.03304857 0.029974287 0.80700004 9.9618224e-39 298 259
-0.031589523 0.030048572 0.80900002 9.8696267e-39 299 259
-0.030048572 0.030048572 0.80900002 9.4090087e-39 300 259
-0.028578097 0.030122858 0.81100005 9.4090087e-39 301 259
-0.027033335 0.030122858 0.81100005 9.2238916e-39 302 259
-0.025551429 0.030197144 0.81300002 9.0395003e-39 303 259
-0.024002858 0.030197144 0.81300002 9.0380584e-39 304 259
-0.022454288 0.030197144 0.81300002 8.5770803e-39 305 259
-0.020905714 0.030197144 0.81300002 1.0143305e-38 306 259
-0.019357143 0.030197144 0.81300002 1.3001369e-38 307 259
0.24292287 0.022397144 0.60300004 7.3756504e-40 531 259
0.24407145 0.022397144 0.60300004 3.7058039e-40 532 259
0.24481335 0.022360003 0.60200006 3.7058039e-40 533 259
0.24555144 0.022322858 0.60100001 6.4536941e-40 534 259
0.24628572 0.022285715 0.60000002 6.4536941e-40 535 259
0.24742858 0.022285715 0.60000002 6.4536941e-40 536 259
0.24857143 0.022285715 0.60000002 5.5317378e-40 537 259
0.24347144 0.021728573 0.58500004 6.4536941e-40 538 259
0.24416766 0.02169143 0.58400005 6.4536941e-40 539 259
0.24485999 0.021654285 0.583 3.7058039e-40 540 259
0.24597049 0.021654285 0.583 3.7058039e-40 541 259
0.24708095 0.021654285 0.583 6.4536941e-40 542 259
0.24478574 0.021357143 0.57500005 6.4536941e-40 543 259
0.24459809 0.021245714 0.57200003 6.4536941e-40 544 259
0.24568763 0.021245714 0.57200003 6.4536941e-40 545 259
0.24634573 0.021208571 0.57100004 6.4501908e-40 546 259
0.24743335 0.021208571 0.57100004 5.5282345e-40 547 259
0.24808574 0.02117143 0.57000005 4.6097815e-40 548 259
0.24786001 0.021060001 0.56700003 5.5317378e-40 549 259
0.2471838 0.020911429 0.56300002 5.5317378e-40 550 259
0.24693333 0.0208 0.56 5.5317378e-40 551 259
0.24755713 0.020762857 0.55900002 4.6062782e-40 552 259
0.24728765 0.02065143 0.55600005 4.6062782e-40 553 259
0.24745335 0.020577144 0.55400002 4.6097815e-40 554 259
0.24850859 0.020577144 0.55400002 4.6097815e-40 555 259
0.24911337 0.020540001 0.55300003 1.8618632e-40 556 259
0.24880952 0.020428572 0.55000001 1.8618632e-40 557 259
0.24985714 0.020428572 0.55000001 4.6097815e-40 558 259
0.25090477 0.020428572 0.55000001 4.6097815e-40 559 259
0.24645525 0.019982859 0.53800005 2.7802182e-40 560 259
0.24702001 0.019945715 0.537 2.7802182e-40 561 259
0.24758095 0.019908572 0.53600001 2.7802182e-40 562 259
0.24860191 0.019908572 0.53600001 2.7802182e-40 563 259
0.24869144 0.019834287 0.53400004 2.7802182e-40 564 259
0.24924098 0.019797144 0.53300005 2.7802182e-40 565 259
0.24884762 0.019685715 0.53000003 2.7802182e-40 566 259
0.24938573 0.019648574 0.52900004 2.7802182e-40 567 259
0.25039336 0.019648574 0.52900004 1.8582619e-40 568 259
0.25140095 0.019648574 0.52900004 1.8582619e-40 569 259
0.25240859 0.019648574 0.52900004 2.7802182e-40 570 259
0.24966 0.01898 0.51100004 3.6878252e-40 576 259
0.25063333 0.01898 0.51100004 4.6097815e-40 577 259
0.25111431 0.018942859 0.51000005 2.7802182e-40 578 259
0.25159141 0.018905714 0.509 2.7802182e-40 579 259
0.25156859 0.018831428 0.50700003 2.7802182e-40 580 259
0.25203621 0.018794287 0.50600004 1.8582619e-40 581 259
0.252 0.018719999 0.50400001 3.6878252e-40 582 259
0.25296 0.018719999 0.50400001 3.6878252e-40 583 259
-0.13248667 0.032526668 0.83300006 1.3182177e-38 236 260
-0.13090001 0.032526668 0.83300006 1.5579264e-38 237 260
-0.12962382 0.032604761 0.83500004 1.6503028e-38 238 260
-0.12803334 0.032604761 0.83500004 1.6687419e-38 239 260
-0.11950572 0.032448575 0.83100003 1.7052241e-38 244 260
-0.11792286 0.032448575 0.83100003 1.7697611e-38 245 260
-0.11634 0.032448575 0.83100003 1.7238432e-38 246 260
-0.11475714 0.032448575 0.83100003 1.1061325e-38 247 260
-0.11126762 0.031901907 0.81700003 8.9436697e-39 248 260
-0.10944287 0.03182381 0.81500006 8.4826916e-39 249 260
-0.10789049 0.03182381 0.81500006 8.2079292e-39 250 260
-0.10607715 0.031745713 0.81300002 8.4845161e-39 251 260
-0.10427143 0.031667624 0.81100005 8.4848692e-39 252 260
-0.10247333 0.031589523 0.80900002 8.5770648e-39 253 260
-0.10068286 0.03151143 0.80700004 8.7614589e-39 254 260
-0.098654293 0.031355239 0.80300003 9.0380458e-39 255 260
-0.097124763 0.031355239 0.80300003 8.9462159e-39 256 260
-0.095476195 0.031316195 0.80200005 9.3149984e-39 257 260
-0.093948573 0.031316195 0.80200005 8.947655e-39 258 260
-0.092190482 0.031238094 0.80000001 9.6852201e-39 259 260
-0.090666667 0.031238094 0.80000001 9.6859389e-39 260 260
-0.089142852 0.031238094 0.80000001 9.8703302e-39 261 260
-0.087400004 0.031160003 0.79800004 1.0054005e-38 262 260
-0.085880004 0.031160003 0.79800004 1.0146201e-38 263 260
-0.084148578 0.031081906 0.79600006 1.0330229e-38 264 260
-0.082632385 0.031081906 0.79600006 1.0422425e-38 265 260
-0.081116192 0.031081906 0.79600006 1.0422422e-38 266 260
-0.079400003 0.03100381 0.79400003 1.0514618e-38 267 260
-0.077887625 0.03100381 0.79400003 1.023911e-38 268 260
-0.076182857 0.030925717 0.79200006 1.0515697e-38 269 260
-0.074674286 0.030925717 0.79200006 1.0607539e-38 270 260
-0.073165715 0.030925717 0.79200006 1.0699735e-38 271 260
-0.071657151 0.030925717 0.79200006 1.0699738e-38 272 260
-0.07014858 0.030925717 0.79200006 1.0791933e-38 273 260
-0.068640009 0.030925717 0.79200006 1.0883776e-38 274 260
-0.067131437 0.030925717 0.79200006 1.0883776e-38 275 260
-0.065788575 0.03100381 0.79400003 1.0883776e-38 276 260
-0.064276196 0.03100381 0.79400003 1.079158e-38 277 260
-0.06276381 0.03100381 0.79400003 1.0884129e-38 278 260
-0.061097149 0.030925717 0.79200006 1.0976325e-38 279 260
-0.059588574 0.030925717 0.79200006 1.0975618e-38 280 260
-0.058226667 0.03100381 0.79400003 1.0975618e-38 281 260
-0.056714289 0.03100381 0.79400003 1.0975972e-38 282 260
-0.055201907 0.03100381 0.79400003 1.0975972e-38 283 260
-0.053824764 0.031081906 0.79600006 1.0883423e-38 284 260
-0.052308574 0.031081906 0.79600006 1.0883423e-38 285 260
-0.050792385 0.031081906 0.79600006 1.0883423e-38 286 260
-0.049276195 0.031081906 0.79600006 1.0791227e-38 287 260
-0.047760002 0.031081906 0.79600006 1.0699748e-38 288 260
-0.046360001 0.031160003 0.79800004 1.0699748e-38 289 260
-0.044840001 0.031160003 0.79800004 1.042424e-38 290 260
-0.043320004 0.031160003 0.79800004 1.0332044e-38 291 260
-0.041904762 0.031238094 0.80000001 1.0332044e-38 292 260
-0.040380955 0.031238094 0.80000001 1.0332044e-38 293 260
-0.038954284 0.031316195 0.80200005 1.0239848e-38 294 260
-0.037473332 0.031355239 0.80300003 1.0239848e-38 295 260
-0.03594381 0.031355239 0.80300003 9.9632615e-39 296 260
-0.034500003 0.031433333 0.80500007 9.8710659e-39 297 260
-0.033130478 0.031589523 0.80900002 9.8699869e-39 298 260
-0.031589523 0.031589523 0.80900002 9.7777912e-39 299 260
-0.030122858 0.031667624 0.81100005 9.4090087e-39 300 260
-0.028578097 0.031667624 0.81100005 9.0402262e-39 301 260
-0.027033335 0.031667624 0.81100005 9.4068409e-39 302 260
-0.025614288 0.03182381 0.81500006 9.130254e-39 303 260
-0.024061905 0.03182381 0.81500006 9.0380584e-39 304 260
-0.022509526 0.03182381 0.81500006 8.5770803e-39 305 260
-0.020957144 0.03182381 0.81500006 1.02355e-38 306 260
0.24292287 0.023545716 0.60300004 3.7058039e-40 531 260
0.24407145 0.023545716 0.60300004 3.7058039e-40 532 260
0.24481335 0.023506669 0.60200006 3.7058039e-40 533 260
0.24555144 0.023467619 0.60100001 3.7058039e-40 534 260
0.24628572 0.023428572 0.60000002 3.7058039e-40 535 260
0.24742858 0.023428572 0.60000002 3.7058039e-40 536 260
0.24857143 0.023428572 0.60000002 3.7058039e-40 537 260
0.24388762 0.022881905 0.58600003 6.4536941e-40 538 260
0.24416766 0.022803811 0.58400005 6.4536941e-40 539 260
0.24485999 0.022764761 0.583 6.4501908e-40 540 260
0.24597049 0.022764761 0.583 6.4501908e-40 541 260
0.24708095 0.022764761 0.583 6.4536941e-40 542 260
0.24478574 0.022452382 0.57500005 6.4536941e-40 543 260
0.24459809 0.022335239 0.57200003 6.4536941e-40 544 260
0.24568763 0.022335239 0.57200003 6.4536941e-40 545 260
0.24634573 0.022296192 0.57100004 6.4501908e-40 546 260
0.24743335 0.022296192 0.57100004 5.5282345e-40 547 260
0.24808574 0.022257145 0.57000005 5.5317378e-40 548 260
0.24786001 0.022140002 0.56700003 5.5317378e-40 549 260
0.24762285 0.022022858 0.56400001 6.4536941e-40 550 260
0.2473743 0.021905715 0.56100005 6.4536941e-40 551 260
0.24755713 0.02182762 0.55900002 2.7803163e-40 552 260
0.24728765 0.021710478 0.55600005 1.85836e-40 553 260
0.24745335 0.021632381 0.55400002 4.6062782e-40 554 260
0.24850859 0.021632381 0.55400002 4.6062782e-40 555 260
0.24911337 0.021593336 0.55300003 2.7731276e-40 556 260
0.24880952 0.021476191 0.55000001 2.7731276e-40 557 260
0.24940287 0.021437144 0.54900002 1.8618632e-40 558 260
0.24907999 0.02132 0.546 1.8618632e-40 559 260
0.25012001 0.02132 0.546 2.7731276e-40 560 260
0.24794 0.021046666 0.53900003 2.7731276e-40 561 260
0.24804287 0.020968571 0.537 2.7802182e-40 562 260
0.24860191 0.020929523 0.53600001 2.7802182e-40 563 260
0.24869144 0.02085143 0.53400004 2.7802182e-40 564 260
0.24924098 0.020812383 0.53300005 2.7802182e-40 565 260
0.24931715 0.020734286 0.53100002 3.6842939e-40 566 260
0.24938573 0.020656191 0.52900004 4.6062502e-40 567 260
0.25039336 0.020656191 0.52900004 2.7802182e-40 568 260
0.25140095 0.020656191 0.52900004 2.7802182e-40 569 260
0.25240859 0.020656191 0.52900004 2.7802182e-40 570 260
0.24966 0.019953335 0.51100004 2.7731276e-40 576 260
0.25063333 0.019953335 0.51100004 2.7731276e-40 577 260
0.25111431 0.019914288 0.51000005 2.7802182e-40 578 260
0.25159141 0.019875238 0.509 2.7802182e-40 579 260
0.25156859 0.019797143 0.50700003 3.6878252e-40 580 260
0.25203621 0.019758098 0.50600004 3.6878252e-40 581 260
0.2525 0.019719047 0.505 3.6878252e-40 582 260
0.2534619 0.019719047 0.505 4.6097815e-40 583 260
-0.13248667 0.034113336 0.83300006 1.0326264e-38 236 261
-0.13090001 0.034113336 0.83300006 1.0510655e-38 237 261
-0.12931333 0.034113336 0.83300006 1.0326264e-38 238 261
-0.12772667 0.034113336 0.83300006 9.7730899e-39 239 261
-0.12583713 0.034031428 0.83100003 9.4050332e-39 240 261
-0.12425429 0.034031428 0.83100003 9.6816201e-39 241 261
-0.12267143 0.034031428 0.83100003 9.5908664e-39 242 261
-0.12138001 0.034113336 0.83300006 1.014404e-38 243 261
-0.11979334 0.034113336 0.83300006 1.1339709e-38 244 261
-0.11792286 0.034031428 0.83100003 1.2261666e-38 245 261
-0.11634 0.034031428 0.83100003 1.1891464e-38 246 261
-0.11365238 0.033703808 0.82300001 9.0333991e-39 247 261
-0.11154001 0.033540003 0.81900007 7.747307e-39 248 261
-0.10971143 0.033458095 0.81700003 8.1160895e-39 249 261
-0.10789049 0.033376191 0.81500006 8.1160867e-39 250 261
-0.10607715 0.033294287 0.81300002 8.3004779e-39 251 261
-0.10427143 0.033212382 0.81100005 8.3001248e-39 252 261
-0.10247333 0.033130478 0.80900002 8.4845161e-39 253 261
-0.10068286 0.03304857 0.80700004 8.6692633e-39 254 261
-0.098654293 0.032884765 0.80300003 8.9458502e-39 255 261
-0.097124763 0.032884765 0.80300003 9.0376927e-39 256 261
-0.095476195 0.03284381 0.80200005 9.5908664e-39 257 261
-0.093948573 0.03284381 0.80200005 9.2242419e-39 258 261
-0.092420958 0.03284381 0.80200005 9.6852201e-39 259 261
-0.090666667 0.032761905 0.80000001 9.7777716e-39 260 261
-0.089142852 0.032761905 0.80000001 9.8699673e-39 261 261
-0.087400004 0.032680001 0.79800004 1.0145838e-38 262 261
-0.085664764 0.032598101 0.79600006 1.0145838e-38 263 261
-0.084148578 0.032598101 0.79600006 1.0054005e-38 264 261
-0.082632385 0.032598101 0.79600006 1.0238397e-38 265 261
-0.080912381 0.032516193 0.79400003 1.0422425e-38 266 261
-0.079400003 0.032516193 0.79400003 1.0514621e-38 267 261
-0.077887625 0.032516193 0.79400003 1.0330952e-38 268 261
-0.076182857 0.032434288 0.79200006 1.0423148e-38 269 261
-0.074674286 0.032434288 0.79200006 1.0330965e-38 270 261
-0.073350482 0.032516193 0.79400003 1.0607552e-38 271 261
-0.071838096 0.032516193 0.79400003 1.0791931e-38 272 261
-0.07014858 0.032434288 0.79200006 1.0884126e-38 273 261
-0.068640009 0.032434288 0.79200006 1.0883776e-38 274 261
-0.067131437 0.032434288 0.79200006 1.0883776e-38 275 261
-0.065788575 0.032516193 0.79400003 1.0699748e-38 276 261
-0.064276196 0.032516193 0.79400003 1.0791943e-38 277 261
-0.06276381 0.032516193 0.79400003 1.0791933e-38 278 261
-0.061097149 0.032434288 0.79200006 1.0976325e-38 279 261
-0.059588574 0.032434288 0.79200006 1.0883788e-38 280 261
-0.058226667 0.032516193 0.79400003 1.0883788e-38 281 261
-0.056714289 0.032516193 0.79400003 1.0884142e-38 282 261
-0.055201907 0.032516193 0.79400003 1.0976337e-38 283 261
-0.053824764 0.032598101 0.79600006 1.0791946e-38 284 261
-0.052308574 0.032598101 0.79600006 1.0791946e-38 285 261
-0.050792385 0.032598101 0.79600006 1.0884142e-38 286 261
-0.049276195 0.032598101 0.79600006 1.0884142e-38 287 261
-0.047760002 0.032598101 0.79600006 1.0699748e-38 288 261
-0.046360001 0.032680001 0.79800004 1.0791943e-38 289 261
-0.044840001 0.032680001 0.79800004 1.0700457e-38 290 261
-0.043320004 0.032680001 0.79800004 1.042387e-38 291 261
-0.041904762 0.032761905 0.80000001 1.0239851e-38 292 261
-0.040380955 0.032761905 0.80000001 1.0332047e-38 293 261
-0.038954284 0.03284381 0.80200005 1.0423161e-38 294 261
-0.037473332 0.032884765 0.80300003 1.0423161e-38 295 261
-0.036033336 0.03296667 0.80500007 1.0331674e-38 296 261
-0.034500003 0.03296667 0.80500007 1.0055087e-38 297 261
-0.033130478 0.033130478 0.80900002 9.6866746e-39 298 261
-0.031589523 0.033130478 0.80900002 9.594479e-39 299 261
-0.030122858 0.033212382 0.81100005 9.5015575e-39 300 261
-0.028578097 0.033212382 0.81100005 9.0405793e-39 301 261
-0.027100001 0.033294287 0.81300002 9.0394975e-39 302 261
-0.025614288 0.033376191 0.81500006 8.9473019e-39 303 261
-0.024120953 0.033458095 0.81700003 9.0380584e-39 304 261
-0.022564763 0.033458095 0.81700003 8.5770803e-39 305 261
-0.021008572 0.033458095 0.81700003 1.0327693e-38 306 261
0.24292287 0.024694288 0.60300004 4.6277602e-40 531 261
0.24407145 0.024694288 0.60300004 4.6277602e-40 532 261
0.24481335 0.024653334 0.60200006 4.6277602e-40 533 261
0.24555144 0.02461238 0.60100001 7.3756504e-40 534 261
0.24669619 0.02461238 0.60100001 6.4536941e-40 535 261
0.24784096 0.02461238 0.60100001 6.4501908e-40 536 261
0.24898571 0.02461238 0.60100001 6.4501908e-40 537 261
0.24305525 0.023916192 0.58400005 6.4536941e-40 538 261
0.24416766 0.023916192 0.58400005 6.4536941e-40 539 261
0.24485999 0.023875238 0.583 3.7023006e-40 540 261
0.24597049 0.023875238 0.583 3.7023006e-40 541 261
0.24708095 0.023875238 0.583 6.4536941e-40 542 261
0.24478574 0.023547621 0.57500005 6.4536941e-40 543 261
0.24459809 0.023424761 0.57200003 6.4536941e-40 544 261
0.24568763 0.023424761 0.57200003 6.4536941e-40 545 261
0.24634573 0.023383811 0.57100004 6.4536941e-40 546 261
0.24743335 0.023383811 0.57100004 5.5317378e-40 547 261
0.24808574 0.023342859 0.57000005 5.5317378e-40 548 261
0.24829714 0.023260953 0.56800002 5.5317378e-40 549 261
0.24850097 0.023179049 0.56600004 5.5317378e-40 550 261
0.24781525 0.02301524 0.56200004 4.6097815e-40 551 261
0.248 0.022933332 0.56 2.776813e-40 552 261
0.2477324 0.022810478 0.55700004 2.776813e-40 553 261
0.24745335 0.02268762 0.55400002 4.6062782e-40 554 261
0.24850859 0.02268762 0.55400002 4.6062782e-40 555 261
0.24911337 0.022646667 0.55300003 2.7803163e-40 556 261
0.24835716 0.022482857 0.54900002 1.85836e-40 557 261
0.24894859 0.022441905 0.54800004 4.6097815e-40 558 261
0.24907999 0.022360001 0.546 4.6097815e-40 559 261
0.25012001 0.022360001 0.546 2.7731276e-40 560 261
0.24794 0.022073334 0.53900003 2.7731276e-40 561 261
0.24804287 0.021991428 0.537 2.7731276e-40 562 261
0.24860191 0.021950476 0.53600001 2.7731276e-40 563 261
0.24869144 0.021868574 0.53400004 2.7731276e-40 564 261
0.24924098 0.021827621 0.53300005 2.7731276e-40 565 261
0.24978666 0.021786666 0.53200001 4.6062782e-40 566 261
0.24985714 0.021704763 0.53000003 4.6062782e-40 567 261
0.25086668 0.021704763 0.53000003 2.7802182e-40 568 261
0.25140095 0.021663811 0.52900004 2.7802182e-40 569 261
0.25240859 0.021663811 0.52900004 2.7802182e-40 570 261
0.25250003 0.021500001 0.52500004 2.7802182e-40 572 261
0.25304571 0.021377144 0.52200001 2.7802182e-40 574 261
0.24917147 0.020885715 0.51000005 2.7731276e-40 576 261
0.25014287 0.020885715 0.51000005 2.7731276e-40 577 261
0.25111431 0.020885715 0.51000005 2.7802182e-40 578 261
0.25159141 0.020844763 0.509 1.8582619e-40 579 261
0.25156859 0.020762857 0.50700003 2.7802182e-40 580 261
0.25203621 0.020721905 0.50600004 1.8582619e-40 581 261
0.2525 0.020680953 0.505 2.7802182e-40 582 261
0.2534619 0.020680953 0.505 2.7802182e-40 583 261
-0.18283334 0.047014289 1.097 1.060463e-38 232 262
-0.18074381 0.047014289 1.097 9.0373045e-39 233 262
-0.13375144 0.035614286 0.83100003 9.4064752e-39 235 262
-0.13216858 0.035614286 0.83100003 9.2224342e-39 236 262
-0.13058572 0.035614286 0.83100003 9.4068255e-39 237 262
-0.12900285 0.035614286 0.83100003 9.0384115e-39 238 262
-0.12741999 0.035614286 0.83100003 8.9462159e-39 239 262
-0.12583713 0.035614286 0.83100003 8.7618218e-39 240 262
-0.12425429 0.035614286 0.83100003 8.9462131e-39 241 262
-0.12267143 0.035614286 0.83100003 9.0384115e-39 242 262
-0.12138001 0.035700005 0.83300006 9.0384115e-39 243 262
-0.11979334 0.035700005 0.83300006 8.5788725e-39 244 262
-0.11820668 0.035700005 0.83300006 8.7632638e-39 245 262
-0.11634 0.035614286 0.83100003 9.1309897e-39 246 262
-0.11365238 0.035271429 0.82300001 8.301229e-39 247 262
-0.11154001 0.035100002 0.81900007 8.4827294e-39 248 262
-0.10971143 0.035014287 0.81700003 8.3905338e-39 249 262
-0.10789049 0.034928575 0.81500006 8.2068432e-39 250 262
-0.10607715 0.03484286 0.81300002 8.5756257e-39 251 262
-0.10427143 0.034757145 0.81100005 8.4848692e-39 252 262
-0.10247333 0.034671426 0.80900002 8.5770648e-39 253 262
-0.10068286 0.034585718 0.80700004 8.7614561e-39 254 262
-0.098654293 0.034414288 0.80300003 8.9458474e-39 255 262
-0.097124763 0.034414288 0.80300003 8.8540203e-39 256 262
-0.095476195 0.034371432 0.80200005 9.5915853e-39 257 262
-0.093948573 0.034371432 0.80200005 9.4089891e-39 258 262
-0.092190482 0.034285713 0.80000001 9.685576e-39 259 262
-0.090666667 0.034285713 0.80000001 9.7777716e-39 260 262
-0.088920005 0.034199998 0.79800004 1.0054359e-38 261 262
-0.087400004 0.034199998 0.79800004 1.0054359e-38 262 262
-0.085664764 0.03411429 0.79600006 1.0054359e-38 263 262
-0.084148578 0.03411429 0.79600006 1.0238034e-38 264 262
-0.082632385 0.03411429 0.79600006 1.0422425e-38 265 262
-0.080912381 0.034028571 0.79400003 1.0239113e-38 266 262
-0.079400003 0.034028571 0.79400003 1.0331308e-38 267 262
-0.077887625 0.034028571 0.79400003 1.0330952e-38 268 262
-0.076182857 0.03394286 0.79200006 1.0515344e-38 269 262
-0.074674286 0.03394286 0.79200006 1.0331671e-38 270 262
-0.073350482 0.034028571 0.79400003 1.0700454e-38 271 262
-0.071838096 0.034028571 0.79400003 1.0700454e-38 272 262
-0.070325717 0.034028571 0.79400003 1.0792649e-38 273 262
-0.068813339 0.034028571 0.79400003 1.0791943e-38 274 262
-0.067300953 0.034028571 0.79400003 1.0791943e-38 275 262
-0.065788575 0.034028571 0.79400003 1.0884495e-38 276 262
-0.064276196 0.034028571 0.79400003 1.0884495e-38 277 262
-0.06276381 0.034028571 0.79400003 1.0884848e-38 278 262
-0.061251432 0.034028571 0.79400003 1.0884848e-38 279 262
-0.05973905 0.034028571 0.79400003 1.0791946e-38 280 262
-0.058226667 0.034028571 0.79400003 1.0884142e-38 281 262
-0.056714289 0.034028571 0.79400003 1.0976337e-38 282 262
-0.055201907 0.034028571 0.79400003 1.0976337e-38 283 262
-0.053824764 0.03411429 0.79600006 1.097634e-38 284 262
-0.052308574 0.03411429 0.79600006 1.097634e-38 285 262
-0.050792385 0.03411429 0.79600006 1.0884142e-38 286 262
-0.049276195 0.03411429 0.79600006 1.0884142e-38 287 262
-0.047760002 0.03411429 0.79600006 1.0699748e-38 288 262
-0.046360001 0.034199998 0.79800004 1.0791943e-38 289 262
-0.044840001 0.034199998 0.79800004 1.0699748e-38 290 262
-0.043428574 0.034285713 0.80000001 1.0423161e-38 291 262
-0.041904762 0.034285713 0.80000001 1.0607192e-38 292 262
-0.04048191 0.034371432 0.80200005 1.0699387e-38 293 262
-0.039002858 0.034414288 0.80300003 1.0515356e-38 294 262
-0.037473332 0.034414288 0.80300003 1.0330965e-38 295 262
-0.036033336 0.034500003 0.80500007 1.0238769e-38 296 262
-0.034585718 0.034585718 0.80700004 1.0146574e-38 297 262
-0.033130478 0.034671426 0.80900002 9.8699869e-39 298 262
-0.031589523 0.034671426 0.80900002 9.7777912e-39 299 262
-0.030122858 0.034757145 0.81100005 9.5015575e-39 300 262
-0.028648572 0.03484286 0.81300002 9.132775e-39 301 262
-0.027100001 0.03484286 0.81300002 9.4993897e-39 302 262
-0.025677143 0.035014287 0.81700003 9.3149984e-39 303 262
-0.024120953 0.035014287 0.81700003 8.7614715e-39 304 262
-0.022564763 0.035014287 0.81700003 8.6692759e-39 305 262
0.24292287 0.025842858 0.60300004 5.5462132e-40 531 262
0.24407145 0.025842858 0.60300004 5.5497165e-40 532 262
0.24522002 0.025842858 0.60300004 4.6277602e-40 533 262
0.24596003 0.025800001 0.60200006 7.3756504e-40 534 262
0.24669619 0.025757143 0.60100001 7.3756504e-40 535 262
0.24742858 0.025714288 0.60000002 6.4501908e-40 536 262
0.24815714 0.02567143 0.59900004 6.4501908e-40 537 262
0.24929813 0.02567143 0.59900004 6.4536941e-40 538 262
0.25043908 0.02567143 0.59900004 6.4536941e-40 539 262
0.24528003 0.025028573 0.58400005 6.4501908e-40 540 262
0.24597049 0.024985714 0.583 6.4501908e-40 541 262
0.24708095 0.024985714 0.583 6.4536941e-40 542 262
0.24819143 0.024985714 0.583 6.4536941e-40 543 262
0.24459809 0.024514288 0.57200003 6.4536941e-40 544 262
0.24568763 0.024514288 0.57200003 6.4536941e-40 545 262
0.24634573 0.02447143 0.57100004 6.4501908e-40 546 262
0.24743335 0.02447143 0.57100004 6.4501908e-40 547 262
0.24765046 0.024385713 0.56900001 5.5317378e-40 548 262
0.24829714 0.024342857 0.56800002 5.5317378e-40 549 262
0.24894002 0.024300002 0.56700003 5.5317378e-40 550 262
0.24825619 0.024128573 0.56300002 4.6097815e-40 551 262
0.24844287 0.02404286 0.56100005 4.6062782e-40 552 262
0.24817714 0.023914287 0.55800003 4.6062782e-40 553 262
0.2483467 0.023828574 0.55600005 4.6062782e-40 554 262
0.24850859 0.023742856 0.55400002 4.6062782e-40 555 262
0.24911337 0.023700003 0.55300003 4.6062782e-40 556 262
0.24835716 0.023528572 0.54900002 4.6062782e-40 557 262
0.24894859 0.023485716 0.54800004 1.8618632e-40 558 262
0.24953622 0.023442859 0.54700005 1.8618632e-40 559 262
0.25012001 0.023399999 0.546 4.6062782e-40 560 262
0.25116 0.023399999 0.546 4.6062782e-40 561 262
0.24804287 0.023014287 0.537 2.7802182e-40 562 262
0.2481381 0.022928571 0.53500003 2.7802182e-40 563 262
0.24869144 0.022885716 0.53400004 2.7802182e-40 564 262
0.24924098 0.02284286 0.53300005 2.7802182e-40 565 262
0.24978666 0.0228 0.53200001 2.7802182e-40 566 262
0.25032857 0.022757143 0.53100002 2.7802182e-40 567 262
0.25086668 0.022714287 0.53000003 2.7731276e-40 568 262
0.25092569 0.022628572 0.528 2.7731276e-40 569 262
0.2519314 0.022628572 0.528 2.7731276e-40 570 262
0.25150001 0.022500001 0.52500004 2.7731276e-40 571 262
0.25250003 0.022500001 0.52500004 3.6842939e-40 572 262
0.25205144 0.022371428 0.52200001 4.6062502e-40 573 262
0.25304571 0.022371428 0.52200001 2.7695263e-40 574 262
0.25404 0.022371428 0.52200001 3.6914826e-40 575 262
0.25014287 0.021857144 0.51000005 2.7731276e-40 577 262
0.25111431 0.021857144 0.51000005 2.7802182e-40 578 262
0.25159141 0.021814287 0.509 1.8582619e-40 579 262
0.25206476 0.021771429 0.50800002 1.8582619e-40 580 262
0.2525343 0.021728572 0.50700003 2.7802182e-40 581 262
0.2525 0.021642858 0.505 2.7802182e-40 582 262
0.2534619 0.021642858 0.505 2.7802182e-40 583 262
-0.14200668 0.037286669 0.83300006 1.2169104e-38 230 263
-0.14042 0.037286669 0.83300006 9.3110398e-39 231 263
-0.13883334 0.037286669 0.83300006 8.575976e-39 232 263
-0.13724667 0.037286669 0.83300006 9.1291498e-39 233 263
-0.13533428 0.037197147 0.83100003 9.1309897e-39 234 263
-0.13342954 0.03710762 0.82900006 1.0329533e-38 235 263
-0.13185048 0.03710762 0.82900006 1.0974504e-38 236 263
-0.13058572 0.037197147 0.83100003 1.1158896e-38 237 263
-0.12900285 0.037197147 0.83100003 1.1067076e-38 238 263
-0.12741999 0.037197147 0.83100003 1.097488e-38 239 263
-0.12583713 0.037197147 0.83100003 1.0699012e-38 240 263
-0.12425429 0.037197147 0.83100003 1.0791207e-38 241 263
-0.12267143 0.037197147 0.83100003 1.0882681e-38 242 263
-0.12138001 0.037286669 0.83300006 1.1159268e-38 243 263
-0.11979334 0.037286669 0.83300006 1.0791924e-38 244 263
-0.11820668 0.037286669 0.83300006 1.0699728e-38 245 263
-0.11634 0.037197147 0.83100003 1.0516065e-38 246 263
-0.11365238 0.036839046 0.82300001 1.0608261e-38 247 263
-0.11181239 0.036749527 0.82100004 1.0421722e-38 248 263
-0.10998001 0.036660004 0.81900007 8.2090264e-39 249 263
-0.10789049 0.036480956 0.81500006 7.8398655e-39 250 263
-0.10607715 0.03639143 0.81300002 8.2086481e-39 251 263
-0.10427143 0.036301903 0.81100005 8.3923205e-39 252 263
-0.10272667 0.036301903 0.81100005 8.6689073e-39 253 263
-0.10093238 0.036212385 0.80900002 8.6689073e-39 254 263
-0.098900005 0.036033336 0.80500007 8.9454942e-39 255 263
-0.097124763 0.03594381 0.80300003 8.9458628e-39 256 263
-0.095595248 0.03594381 0.80300003 9.5912322e-39 257 263
-0.093948573 0.035899047 0.80200005 9.3167935e-39 258 263
-0.092190482 0.035809524 0.80000001 9.5933804e-39 259 263
-0.090666667 0.035809524 0.80000001 9.7777716e-39 260 263
-0.088920005 0.035720002 0.79800004 1.0054359e-38 261 263
-0.087400004 0.035720002 0.79800004 1.0145835e-38 262 263
-0.085664764 0.035630479 0.79600006 1.0238031e-38 263 263
-0.084148578 0.035630479 0.79600006 1.0146201e-38 264 263
-0.082632385 0.035630479 0.79600006 1.0238397e-38 265 263
-0.080912381 0.035540953 0.79400003 1.0422425e-38 266 263
-0.079400003 0.035540953 0.79400003 1.0422425e-38 267 263
-0.077887625 0.035540953 0.79400003 1.0514984e-38 268 263
-0.076375239 0.035540953 0.79400003 1.1068157e-38 269 263
-0.07486286 0.035540953 0.79400003 1.1252186e-38 270 263
-0.073350482 0.035540953 0.79400003 1.1436577e-38 271 263
-0.071838096 0.035540953 0.79400003 1.1160713e-38 272 263
-0.070325717 0.035540953 0.79400003 1.1068517e-38 273 263
-0.068813339 0.035540953 0.79400003 1.0884129e-38 274 263
-0.067300953 0.035540953 0.79400003 1.0976325e-38 275 263
-0.065788575 0.035540953 0.79400003 1.0884848e-38 276 263
-0.064276196 0.035540953 0.79400003 1.0884848e-38 277 263
-0.06276381 0.035540953 0.79400003 1.0884495e-38 278 263
-0.061251432 0.035540953 0.79400003 1.0884495e-38 279 263
-0.05973905 0.035540953 0.79400003 1.0516798e-38 280 263
-0.058226667 0.035540953 0.79400003 1.0608994e-38 281 263
-0.056714289 0.035540953 0.79400003 1.0976337e-38 282 263
-0.055340957 0.035630479 0.79600006 1.0976337e-38 283 263
-0.053824764 0.035630479 0.79600006 1.1067817e-38 284 263
-0.052308574 0.035630479 0.79600006 1.1067817e-38 285 263
-0.050792385 0.035630479 0.79600006 1.0791949e-38 286 263
-0.049276195 0.035630479 0.79600006 1.0791949e-38 287 263
-0.047880001 0.035720002 0.79800004 1.0516438e-38 288 263
-0.046360001 0.035720002 0.79800004 1.0516438e-38 289 263
-0.044952381 0.035809524 0.80000001 1.0699748e-38 290 263
-0.043428574 0.035809524 0.80000001 1.0515356e-38 291 263
-0.042009525 0.035899047 0.80200005 1.0239851e-38 292 263
-0.04048191 0.035899047 0.80200005 1.0332047e-38 293 263
-0.039002858 0.03594381 0.80300003 1.0239851e-38 294 263
-0.037566669 0.036033336 0.80500007 1.0147656e-38 295 263
-0.036033336 0.036033336 0.80500007 1.0331674e-38 296 263
-0.034585718 0.036122859 0.80700004 1.0055087e-38 297 263
-0.033130478 0.036212385 0.80900002 9.594479e-39 298 263
-0.031667624 0.036301903 0.81100005 9.4100877e-39 299 263
