# .PCD v0.7 - Point Cloud Data file format
VERSION 0.7
FIELDS x y z rgb
SIZE 4 4 4 4
TYPE F F F F
COUNT 1 1 1 1
WIDTH 1056
HEIGHT 1
VIEWPOINT 0 0 0 1 0 0 0
POINTS 1056
DATA ascii
0.2183743 -0.052848574 1.0470001 1.05128e-38
0.22036858 -0.052848574 1.0470001 1.0330267e-38
0.22172572 -0.052697144 1.044 1.1344419e-38
0.22371429 -0.052697144 1.044 1.1896849e-38
0.22570287 -0.052697144 1.044 1.420174e-38
0.22703715 -0.052545715 1.041 1.4753439e-38
0.22902 -0.052545715 1.041 1.5030026e-38
0.23100287 -0.052545715 1.041 1.4935682e-38
0.098883808 -0.049931429 1.028 1.7701911e-38
0.10084191 -0.049931429 1.028 1.4659455e-38
0.10250001 -0.049785718 1.0250001 1.198758e-38
0.10445239 -0.049785718 1.0250001 1.0051472e-38
0.10640477 -0.049785718 1.0250001 9.6848669e-39
0.10804 -0.049640004 1.0220001 1.1159997e-38
0.10966381 -0.049494285 1.0190001 1.1251855e-38
0.11160477 -0.049494285 1.0190001 1.1805029e-38
0.11321143 -0.049348574 1.016 1.2081972e-38
0.11480667 -0.049202859 1.013 1.2081972e-38
0.11639047 -0.049057141 1.01 1.1162874e-38
0.11796286 -0.048911434 1.0070001 8.7657875e-39
0.11988096 -0.048911434 1.0070001 8.580655e-39
0.1214362 -0.048765715 1.0040001 1.1623111e-38
0.12334858 -0.048765715 1.0040001 1.3740048e-38
0.12526095 -0.048765715 1.0040001 1.3555657e-38
0.12717335 -0.048765715 1.0040001 1.2821348e-38
0.12908572 -0.048765715 1.0040001 1.2821348e-38
0.1309981 -0.048765715 1.0040001 1.2636241e-38
0.13251334 -0.04862 1.001 1.3373806e-38
0.13442001 -0.04862 1.001 1.3740787e-38
0.13632667 -0.04862 1.001 1.3740787e-38
0.13781905 -0.048474289 0.99800003 7.8499913e-39
0.13972001 -0.048474289 0.99800003 4.438753e-39
0.14119524 -0.048328575 0.99500006 7.4839834e-39
0.14309049 -0.048328575 0.99500006 1.2646939e-38
0.14498572 -0.048328575 0.99500006 1.3650393e-38
0.14688095 -0.048328575 0.99500006 1.3005024e-38
0.1487762 -0.048328575 0.99500006 1.2638042e-38
0.15112571 -0.048474289 0.99800003 1.2638042e-38
0.15302667 -0.048474289 0.99800003 1.2453651e-38
0.15492763 -0.048474289 0.99800003 1.2638042e-38
0.15682857 -0.048474289 0.99800003 1.2729146e-38
0.15872952 -0.048474289 0.99800003 1.2913537e-38
0.16063048 -0.048474289 0.99800003 1.2820635e-38
0.16253144 -0.048474289 0.99800003 1.2636244e-38
0.16492666 -0.04862 1.001 1.2176698e-38
0.16683334 -0.04862 1.001 1.1900111e-38
0.16874 -0.04862 1.001 1.1162549e-38
0.17115811 -0.048765715 1.0040001 1.1254744e-38
0.17307049 -0.048765715 1.0040001 1.116182e-38
0.17550573 -0.048911434 1.0070001 1.0885233e-38
0.17795236 -0.049057141 1.01 1.0423533e-38
0.17987618 -0.049057141 1.01 1.0239142e-38
0.18234 -0.049202859 1.013 9.9621853e-39
0.18426952 -0.049202859 1.013 9.1324246e-39
0.18675049 -0.049348574 1.016 9.7770654e-39
0.18924287 -0.049494285 1.0190001 1.4479042e-38
0.19118382 -0.049494285 1.0190001 1.5120421e-38
0.21438572 -0.050854288 1.0470001 1.2170527e-38
0.21638 -0.050854288 1.0470001 1.1157456e-38
0.2183743 -0.050854288 1.0470001 1.1341848e-38
0.21973714 -0.050708573 1.044 1.0791593e-38
0.22172572 -0.050708573 1.044 1.1160375e-38
0.22371429 -0.050708573 1.044 1.2448928e-38
0.22570287 -0.050708573 1.044 1.4753819e-38
0.22769143 -0.050708573 1.044 1.5028941e-38
0.22968 -0.050708573 1.044 1.5028941e-38
0.099172384 -0.048113335 1.031 1.751716e-38
0.10113619 -0.048113335 1.031 1.5027878e-38
0.1028 -0.047973335 1.028 1.189576e-38
0.10445239 -0.047833338 1.0250001 9.4986736e-39
0.10640477 -0.047833338 1.0250001 9.4093619e-39
0.10804 -0.047693335 1.0220001 1.0976688e-38
0.10998667 -0.047693335 1.0220001 1.1251855e-38
0.11160477 -0.047553334 1.0190001 1.1805029e-38
0.11321143 -0.047413334 1.016 1.198977e-38
0.11514667 -0.047413334 1.016 1.0606836e-38
0.11673619 -0.047273334 1.013 7.2931686e-39
0.11831428 -0.04713333 1.01 6.4634079e-39
0.11988096 -0.046993338 1.0070001 7.2002092e-39
0.12179905 -0.046993338 1.0070001 9.6894912e-39
0.12371716 -0.046993338 1.0070001 1.208089e-38
0.12526095 -0.046853337 1.0040001 1.3648215e-38
0.12717335 -0.046853337 1.0040001 1.3281598e-38
0.12908572 -0.046853337 1.0040001 1.3005011e-38
0.1309981 -0.046853337 1.0040001 1.2912468e-38
0.13251334 -0.046713337 1.001 1.3373446e-38
0.13442001 -0.046713337 1.001 1.3280522e-38
0.13632667 -0.046713337 1.001 1.4294674e-38
0.13823333 -0.046713337 1.001 1.2270691e-38
0.13972001 -0.046573333 0.99800003 2.8525953e-40
0.14162096 -0.046573333 0.99800003 2.8420435e-40
0.1435219 -0.046573333 0.99800003 1.3560375e-38
0.14542286 -0.046573333 0.99800003 1.4847134e-38
0.14732382 -0.046573333 0.99800003 1.3556395e-38
0.14922476 -0.046573333 0.99800003 1.2545492e-38
0.15112571 -0.046573333 0.99800003 1.2453296e-38
0.15302667 -0.046573333 0.99800003 1.2636963e-38
0.15492763 -0.046573333 0.99800003 1.2729158e-38
0.15682857 -0.046573333 0.99800003 1.2913537e-38
0.15872952 -0.046573333 0.99800003 1.3005733e-38
0.16063048 -0.046573333 0.99800003 1.2635529e-38
0.16302 -0.046713337 1.001 1.2358942e-38
0.16492666 -0.046713337 1.001 1.2083783e-38
0.16683334 -0.046713337 1.001 1.1991588e-38
0.16874 -0.046713337 1.001 1.1346574e-38
0.17166954 -0.046993338 1.0070001 1.1346574e-38
0.17358764 -0.046993338 1.0070001 1.125365e-38
0.17550573 -0.046993338 1.0070001 1.0423889e-38
0.17848095 -0.047273334 1.013 1.0331694e-38
0.18041047 -0.047273334 1.013 1.0147302e-38
0.18234 -0.047273334 1.013 9.5948447e-39
0.18481524 -0.047413334 1.016 9.0416709e-39
0.1873019 -0.047553334 1.0190001 1.0973801e-38
0.18924287 -0.047553334 1.0190001 1.52148e-38
0.19118382 -0.047553334 1.0190001 1.5581387e-38
0.21178286 -0.048720002 1.044 1.4844187e-38
0.21377143 -0.048720002 1.044 1.1248558e-38
0.21638 -0.048860002 1.0470001 1.0514267e-38
0.2183743 -0.048860002 1.0470001 1.1805006e-38
0.21973714 -0.048720002 1.044 1.208124e-38
0.22172572 -0.048720002 1.044 1.3187588e-38
0.22371429 -0.048720002 1.044 1.37393e-38
0.22570287 -0.048720002 1.044 1.4753452e-38
0.22769143 -0.048720002 1.044 1.4936383e-38
0.22968 -0.048720002 1.044 1.4936383e-38
0.099172384 -0.046149526 1.031 1.733205e-38
0.10113619 -0.046149526 1.031 1.5303746e-38
0.1028 -0.046015237 1.028 1.2632233e-38
0.10445239 -0.045880955 1.0250001 9.7741689e-39
0.10640477 -0.045880955 1.0250001 9.6848697e-39
0.10804 -0.045746669 1.0220001 1.1252195e-38
0.10998667 -0.045746669 1.0220001 1.1252208e-38
0.11160477 -0.045612384 1.0190001 1.1620991e-38
0.11354572 -0.045612384 1.0190001 1.1898291e-38
0.11514667 -0.045478098 1.016 1.1252921e-38
0.11708191 -0.045478098 1.016 6.3719451e-39
0.11831428 -0.045209523 1.01 6.5563364e-39
0.1202381 -0.045209523 1.01 8.3048094e-39
0.12179905 -0.045075241 1.0070001 8.8579831e-39
0.12371716 -0.045075241 1.0070001 1.1249314e-38
0.12526095 -0.044940956 1.0040001 1.3738596e-38
0.12717335 -0.044940956 1.0040001 1.3372723e-38
0.12908572 -0.044940956 1.0040001 1.3096136e-38
0.1309981 -0.044940956 1.0040001 1.263695e-38
0.13291049 -0.044940956 1.0040001 1.3005733e-38
0.13482286 -0.044940956 1.0040001 1.300538e-38
0.13673525 -0.044940956 1.0040001 1.3927336e-38
0.13823333 -0.044806667 1.001 1.3556395e-38
0.14014 -0.044806667 1.001 1.202181e-39
0.14162096 -0.044672381 0.99800003 3.7918015e-40
0.1435219 -0.044672381 0.99800003 1.3378758e-38
0.14542286 -0.044672381 0.99800003 1.4481226e-38
0.14732382 -0.044672381 0.99800003 1.3282683e-38
0.14922476 -0.044672381 0.99800003 1.2453648e-38
0.15112571 -0.044672381 0.99800003 1.2638039e-38
0.15302667 -0.044672381 0.99800003 1.2729158e-38
0.15492763 -0.044672381 0.99800003 1.2821354e-38
0.15682857 -0.044672381 0.99800003 1.2913534e-38
0.15872952 -0.044672381 0.99800003 1.2636947e-38
0.16063048 -0.044672381 0.99800003 1.245185e-38
0.16302 -0.044806667 1.001 1.2359654e-38
0.16492666 -0.044806667 1.001 1.1991588e-38
0.16683334 -0.044806667 1.001 1.1899392e-38
0.16874 -0.044806667 1.001 1.1623161e-38
0.17166954 -0.045075241 1.0070001 1.1346574e-38
0.17358764 -0.045075241 1.0070001 1.1253294e-38
0.17602856 -0.045209523 1.01 1.0792316e-38
0.17848095 -0.045343809 1.013 1.0699034e-38
0.18041047 -0.045343809 1.013 9.9614692e-39
0.18288 -0.045478098 1.016 9.5012044e-39
0.18536097 -0.045612384 1.0190001 9.4090087e-39
0.18785335 -0.045746669 1.0220001 1.1986511e-38
0.18980001 -0.045746669 1.0220001 1.5213358e-38
0.19174668 -0.045746669 1.0220001 1.5120055e-38
0.21178286 -0.046731427 1.044 1.3091061e-38
0.21377143 -0.046731427 1.044 1.1339344e-38
0.21638 -0.046865717 1.0470001 1.0330605e-38
0.2183743 -0.046865717 1.0470001 1.1529148e-38
0.21973714 -0.046731427 1.044 1.2448578e-38
0.22172572 -0.046731427 1.044 1.4015904e-38
0.22371429 -0.046731427 1.044 1.4383219e-38
0.22570287 -0.046731427 1.044 1.4844197e-38
0.22769143 -0.046731427 1.044 1.475271e-38
0.22968 -0.046731427 1.044 1.475271e-38
0.10113619 -0.044185713 1.031 1.5672528e-38
0.1028 -0.044057142 1.028 1.32776e-38
0.1047581 -0.044057142 1.028 9.4975792e-39
0.10640477 -0.043928575 1.0250001 9.6841663e-39
0.10804 -0.0438 1.0220001 1.1251492e-38
0.10998667 -0.0438 1.0220001 1.1712097e-38
0.11160477 -0.043671433 1.0190001 1.1988684e-38
0.11354572 -0.043671433 1.0190001 1.2357467e-38
0.11514667 -0.043542858 1.016 1.3002836e-38
0.11708191 -0.043542858 1.016 1.1252211e-38
0.11866571 -0.043414284 1.013 9.4082983e-39
0.1202381 -0.043285716 1.01 9.0413416e-39
0.12179905 -0.043157145 1.0070001 8.0271897e-39
0.12371716 -0.043157145 1.0070001 7.751658e-39
0.12526095 -0.043028574 1.0040001 1.2177048e-38
0.12717335 -0.043028574 1.0040001 1.3556748e-38
0.12908572 -0.043028574 1.0040001 1.3372357e-38
0.1309981 -0.043028574 1.0040001 1.2913531e-38
0.13291049 -0.043028574 1.0040001 1.2913531e-38
0.13482286 -0.043028574 1.0040001 1.3833698e-38
0.13673525 -0.043028574 1.0040001 1.4755655e-38
0.13823333 -0.0429 1.001 1.3649247e-38
0.14014 -0.0429 1.001 2.7701625e-39
0.14204666 -0.0429 1.001 3.8102707e-40
0.14395334 -0.0429 1.001 8.4942425e-39
0.14586 -0.0429 1.001 1.3557439e-38
0.14776668 -0.0429 1.001 1.4479396e-38
0.14967334 -0.0429 1.001 1.3465992e-38
0.15158001 -0.0429 1.001 1.3373796e-38
0.15348667 -0.0429 1.001 1.3097219e-38
0.15539335 -0.0429 1.001 1.1714285e-38
0.15730001 -0.0429 1.001 9.9640168e-39
0.15920667 -0.0429 1.001 9.8718212e-39
0.16111334 -0.0429 1.001 1.1160762e-38
0.16302 -0.0429 1.001 1.2912479e-38
0.16492666 -0.0429 1.001 1.3003928e-38
0.16733335 -0.043028574 1.0040001 1.2266363e-38
0.16924572 -0.043028574 1.0040001 1.1898663e-38
0.17166954 -0.043157145 1.0070001 1.1622077e-38
0.17358764 -0.043157145 1.0070001 1.1345843e-38
0.17602856 -0.043285716 1.01 1.1161452e-38
0.17848095 -0.043414284 1.013 1.0606839e-38
0.18094477 -0.043542858 1.016 9.5926867e-39
0.18342 -0.043671433 1.0190001 9.1331477e-39
0.18590668 -0.0438 1.0220001 9.9629084e-39
0.18785335 -0.0438 1.0220001 1.226417e-38
0.18980001 -0.0438 1.0220001 1.5030039e-38
0.19174668 -0.0438 1.0220001 1.5120055e-38
0.21100001 -0.045000002 1.0500001 1.244464e-38
0.21239144 -0.044871431 1.0470001 1.1434426e-38
0.21438572 -0.044871431 1.0470001 1.1895404e-38
0.21638 -0.044871431 1.0470001 1.1990126e-38
0.2183743 -0.044871431 1.0470001 1.2358909e-38
0.21973714 -0.044742856 1.044 1.3093947e-38
0.22172572 -0.044742856 1.044 1.4476882e-38
0.22371429 -0.044742856 1.044 1.4751992e-38
0.22570287 -0.044742856 1.044 1.4936383e-38
0.22769143 -0.044742856 1.044 1.4843834e-38
0.10113619 -0.042221904 1.031 1.6502286e-38
0.1028 -0.042099047 1.028 1.4015168e-38
0.1047581 -0.042099047 1.028 9.8663645e-39
0.10640477 -0.041976195 1.0250001 9.7752731e-39
0.10835715 -0.041976195 1.0250001 1.1434794e-38
0.10998667 -0.041853335 1.0220001 1.1710665e-38
0.11193334 -0.041853335 1.0220001 1.1710665e-38
0.11354572 -0.041730478 1.0190001 1.1803208e-38
0.11548667 -0.041730478 1.0190001 1.2356382e-38
0.11708191 -0.041607618 1.016 1.2266713e-38
0.11901715 -0.041607618 1.016 1.1252561e-38
0.12095239 -0.041607618 1.016 8.398496e-39
0.12216191 -0.041361906 1.01 4.8028664e-39
0.12371716 -0.041239049 1.0070001 4.1588647e-39
0.12563524 -0.041239049 1.0070001 1.0520363e-38
0.12755334 -0.041239049 1.0070001 1.3280174e-38
0.12908572 -0.041116193 1.0040001 1.3648957e-38
0.1309981 -0.041116193 1.0040001 1.3098639e-38
0.13291049 -0.041116193 1.0040001 1.3190834e-38
0.13482286 -0.041116193 1.0040001 1.4293607e-38
0.13673525 -0.041116193 1.0040001 1.3556042e-38
0.13864763 -0.041116193 1.0040001 1.0792284e-38
0.14014 -0.040993337 1.001 4.8917634e-39
0.14204666 -0.040993337 1.001 1.3016031e-39
0.14395334 -0.040993337 1.001 5.6347977e-39
0.14586 -0.040993337 1.001 9.5037127e-39
0.14776668 -0.040993337 1.001 1.2822755e-38
0.14967334 -0.040993337 1.001 1.4292879e-38
0.15158001 -0.040993337 1.001 1.4200683e-38
0.15348667 -0.040993337 1.001 1.3648602e-38
0.15539335 -0.040993337 1.001 9.6841901e-39
0.15730001 -0.040993337 1.001 7.9335311e-39
0.15920667 -0.040993337 1.001 8.210118e-39
0.16111334 -0.040993337 1.001 1.0513924e-38
0.16302 -0.040993337 1.001 1.2911011e-38
0.16542096 -0.041116193 1.0040001 1.3280499e-38
0.16733335 -0.041116193 1.0040001 1.2450739e-38
0.16924572 -0.041116193 1.0040001 1.1898669e-38
0.17166954 -0.041239049 1.0070001 1.1622082e-38
0.17410477 -0.041361906 1.01 1.1161452e-38
0.17602856 -0.041361906 1.01 1.097706e-38
0.17848095 -0.041484762 1.013 1.1066735e-38
0.18094477 -0.041607618 1.016 1.0052583e-38
0.18342 -0.041730478 1.0190001 9.0395003e-39
0.18590668 -0.041853335 1.0220001 1.0791217e-38
0.18785335 -0.041853335 1.0220001 1.2632952e-38
0.19035715 -0.041976195 1.0250001 1.4753452e-38
0.19230954 -0.041976195 1.0250001 1.4843824e-38
0.20979621 -0.04316381 1.054 1.4750585e-38
0.21100001 -0.043000001 1.0500001 1.2076911e-38
0.21239144 -0.042877145 1.0470001 1.0699024e-38
0.21438572 -0.042877145 1.0470001 1.2081959e-38
0.21638 -0.042877145 1.0470001 1.2267063e-38
0.2183743 -0.042877145 1.0470001 1.2451455e-38
0.21973714 -0.042754289 1.044 1.3279398e-38
0.22172572 -0.042754289 1.044 1.429355e-38
0.22371429 -0.042754289 1.044 1.4843834e-38
0.22570287 -0.042754289 1.044 1.4659443e-38
0.10143048 -0.04037524 1.034 1.6594835e-38
0.1031 -0.040258095 1.031 1.4290676e-38
0.1047581 -0.040140949 1.028 9.9574812e-39
0.10671619 -0.040140949 1.028 9.8674687e-39
0.10835715 -0.040023815 1.0250001 1.1434794e-38
0.11030953 -0.040023815 1.0250001 1.1158931e-38
0.11193334 -0.039906669 1.0220001 9.4072137e-39
0.11388 -0.039906669 1.0220001 8.6717968e-39
0.11548667 -0.039789528 1.0190001 8.5796012e-39
0.11742762 -0.039789528 1.0190001 1.0054005e-38
0.11901715 -0.039672382 1.016 1.1897918e-38
0.12095239 -0.039672382 1.016 9.40975e-39
0.12216191 -0.039438095 1.01 1.4809258e-39
0.12371716 -0.039320953 1.0070001 3.0557793e-39
0.12563524 -0.039320953 1.0070001 8.6797128e-39
0.12755334 -0.039320953 1.0070001 1.4108478e-38
0.12947144 -0.039320953 1.0070001 1.4200673e-38
0.1309981 -0.039203811 1.0040001 1.3925155e-38
0.13291049 -0.039203811 1.0040001 1.4939307e-38
0.13482286 -0.039203811 1.0040001 1.4570172e-38
0.13673525 -0.039203811 1.0040001 8.1164777e-39
0.13864763 -0.039203811 1.0040001 6.0006193e-39
0.14014 -0.039086666 1.001 7.567945e-39
0.14204666 -0.039086666 1.001 7.8413719e-39
0.14395334 -0.039086666 1.001 6.3662419e-39
0.14586 -0.039086666 1.001 8.7675349e-39
0.14776668 -0.039086666 1.001 1.1072426e-38
0.14967334 -0.039086666 1.001 1.383261e-38
0.15158001 -0.039086666 1.001 1.530774e-38
0.15348667 -0.039086666 1.001 1.456874e-38
0.15585905 -0.039203811 1.0040001 1.0051154e-38
0.15777142 -0.039203811 1.0040001 6.7357208e-39
0.15968382 -0.039203811 1.0040001 7.0123077e-39
0.16159619 -0.039203811 1.0040001 8.6725255e-39
0.16350858 -0.039203811 1.0040001 1.005546e-38
0.16542096 -0.039203811 1.0040001 1.0055438e-38
0.16733335 -0.039203811 1.0040001 1.1438372e-38
0.16924572 -0.039203811 1.0040001 1.1899385e-38
0.17218095 -0.039438095 1.01 1.1346211e-38
0.17410477 -0.039438095 1.01 1.1161452e-38
0.17655143 -0.03955524 1.013 1.097706e-38
0.17900953 -0.039672382 1.016 1.1067088e-38
0.18147905 -0.039789528 1.0190001 9.4997624e-39
0.18396002 -0.039906669 1.0220001 8.9476803e-39
0.18590668 -0.039906669 1.0220001 1.1529158e-38
0.18840477 -0.040023815 1.0250001 1.3001029e-38
0.19035715 -0.040023815 1.0250001 1.466055e-38
0.20695239 -0.041390479 1.0600001 1.5762261e-38
0.20838001 -0.041273333 1.057 1.3365174e-38
0.20979621 -0.041156191 1.054 1.1526972e-38
0.21180381 -0.041156191 1.054 1.1711363e-38
0.213 -0.041000001 1.0500001 1.2173438e-38
0.21500002 -0.041000001 1.0500001 1.2726612e-38
0.21638 -0.040882859 1.0470001 1.3003184e-38
0.2183743 -0.040882859 1.0470001 1.4017336e-38
0.21973714 -0.040765714 1.044 1.4383572e-38
0.22172572 -0.040765714 1.044 1.4383572e-38
0.22371429 -0.040765714 1.044 1.4475415e-38
0.1031 -0.038294286 1.031 1.4475067e-38
0.10506381 -0.038294286 1.031 1.0141872e-38
0.10671619 -0.038182855 1.028 9.7777716e-39
0.10867429 -0.038182855 1.028 1.1160706e-38
0.11030953 -0.038071431 1.0250001 1.0516798e-38
0.11226191 -0.038071431 1.0250001 9.4104507e-39
0.11388 -0.03796 1.0220001 7.844204e-39
0.11582667 -0.03796 1.0220001 6.6456608e-39
0.11742762 -0.037848573 1.0190001 7.6536442e-39
0.11936858 -0.037848573 1.0190001 9.2209699e-39
0.12130953 -0.037848573 1.0190001 9.3168187e-39
0.12288762 -0.037737142 1.016 5.6289935e-39
0.12445429 -0.037625715 1.013 4.896092e-39
0.12600952 -0.037514284 1.01 8.3995259e-39
0.12793334 -0.037514284 1.01 1.1805006e-38
0.12985715 -0.037514284 1.01 1.1805006e-38
0.13138954 -0.037402861 1.0070001 1.1619549e-38
0.13330762 -0.037402861 1.0070001 1.2633701e-38
0.13522573 -0.037402861 1.0070001 1.2634792e-38
0.13714382 -0.037402861 1.0070001 7.4718369e-39
0.13864763 -0.03729143 1.0040001 1.3062484e-39
0.14056002 -0.03729143 1.0040001 6.5613993e-39
0.14247239 -0.03729143 1.0040001 9.1324583e-39
0.14438476 -0.03729143 1.0040001 9.7778277e-39
0.14629716 -0.03729143 1.0040001 9.4094207e-39
0.14820953 -0.03729143 1.0040001 9.5016163e-39
0.15012191 -0.03729143 1.0040001 1.033242e-38
0.1520343 -0.03729143 1.0040001 1.3374875e-38
0.15394668 -0.03729143 1.0040001 1.4843885e-38
0.15585905 -0.03729143 1.0040001 1.0141907e-38
0.15777142 -0.03729143 1.0040001 7.6529435e-39
0.15968382 -0.03729143 1.0040001 8.1139217e-39
0.16159619 -0.03729143 1.0040001 8.301585e-39
0.16350858 -0.03729143 1.0040001 8.4859762e-39
0.16542096 -0.03729143 1.0040001 6.4612625e-39
0.16783336 -0.037402861 1.0070001 9.7803052e-39
0.16975144 -0.037402861 1.0070001 1.2081279e-38
0.17218095 -0.037514284 1.01 1.1528106e-38
0.17462189 -0.037625715 1.013 1.1161807e-38
0.1770743 -0.037737142 1.016 1.0977416e-38
0.1795381 -0.037848573 1.0190001 1.0424242e-38
0.18147905 -0.037848573 1.0190001 8.9491124e-39
0.18396002 -0.03796 1.0220001 8.8561881e-39
0.18590668 -0.03796 1.0220001 1.1990839e-38
0.18785335 -0.03796 1.0220001 1.3738581e-38
0.18980001 -0.03796 1.0220001 1.4291755e-38
0.20551334 -0.039482862 1.0630001 1.6038089e-38
0.20695239 -0.039371431 1.0600001 1.4934989e-38
0.20838001 -0.039260004 1.057 1.2261315e-38
0.20979621 -0.039148569 1.054 1.0330968e-38
0.21180381 -0.039148569 1.054 1.1806098e-38
0.21381143 -0.039148569 1.054 1.2542218e-38
0.21500002 -0.039000005 1.0500001 1.2542218e-38
0.21638 -0.03888857 1.0470001 1.3370517e-38
0.2183743 -0.03888857 1.0470001 1.4569061e-38
0.21973714 -0.038777143 1.044 1.4843474e-38
0.22172572 -0.038777143 1.044 1.4566887e-38
0.22371429 -0.038777143 1.044 1.4475415e-38
0.10340001 -0.036436193 1.034 1.5582115e-38
0.10506381 -0.036330476 1.031 1.0326964e-38
0.10671619 -0.03622476 1.028 9.6837753e-39
0.10867429 -0.03622476 1.028 1.1251101e-38
0.11063238 -0.03622476 1.028 1.1344028e-38
0.11226191 -0.036119051 1.0250001 1.1067441e-38
0.11421429 -0.036119051 1.0250001 8.5799767e-39
0.11582667 -0.036013335 1.0220001 6.1828904e-39
0.11777334 -0.036013335 1.0220001 4.0662935e-39
0.11936858 -0.035907622 1.0190001 5.172641e-39
0.12130953 -0.035907622 1.0190001 8.211169e-39
0.12288762 -0.035801906 1.016 8.1189734e-39
0.12482286 -0.035801906 1.016 6.7385599e-39
0.12638381 -0.03569619 1.013 3.5117128e-39
0.12831333 -0.03569619 1.013 6.4601611e-39
0.12985715 -0.035590474 1.01 9.3182256e-39
0.13178095 -0.035590474 1.01 9.77492e-39
0.13370477 -0.035590474 1.01 8.9451593e-39
0.13522573 -0.035484765 1.0070001 1.0792274e-38
0.13714382 -0.035484765 1.0070001 9.8703176e-39
0.13906191 -0.035484765 1.0070001 8.7654568e-39
0.14056002 -0.035379048 1.0040001 8.3966743e-39
0.14247239 -0.035379048 1.0040001 1.0050801e-38
0.14438476 -0.035379048 1.0040001 1.512156e-38
0.14629716 -0.035379048 1.0040001 1.5305219e-38
0.14820953 -0.035379048 1.0040001 9.7734809e-39
0.15012191 -0.035379048 1.0040001 8.21009e-39
0.1520343 -0.035379048 1.0040001 9.7774157e-39
0.15440668 -0.035484765 1.0070001 1.0695081e-38
0.15632477 -0.035484765 1.0070001 8.6667774e-39
0.15824287 -0.035484765 1.0070001 6.5505182e-39
0.15968382 -0.035379048 1.0040001 7.4724745e-39
0.16159619 -0.035379048 1.0040001 9.1295478e-39
0.16399716 -0.035484765 1.0070001 1.1065656e-38
0.16591525 -0.035484765 1.0070001 9.4093871e-39
0.16783336 -0.035484765 1.0070001 9.5937783e-39
0.17025715 -0.035590474 1.01 1.2082334e-38
0.17269237 -0.03569619 1.013 1.0975987e-38
0.17462189 -0.03569619 1.013 1.0699387e-38
0.1770743 -0.035801906 1.016 1.106817e-38
0.1795381 -0.035907622 1.0190001 1.0883763e-38
0.18147905 -0.035907622 1.0190001 9.5930244e-39
0.18396002 -0.036013335 1.0220001 9.0409353e-39
0.18590668 -0.036013335 1.0220001 1.2359978e-38
0.18785335 -0.036013335 1.0220001 1.3922246e-38
0.18980001 -0.036013335 1.0220001 1.4291029e-38
0.19174668 -0.036013335 1.0220001 1.56714e-38
0.20146382 -0.037458096 1.0630001 1.714653e-38
0.20348857 -0.037458096 1.0630001 1.5762263e-38
0.20551334 -0.037458096 1.0630001 1.3180786e-38
0.20695239 -0.037352383 1.0600001 1.1712072e-38
0.20838001 -0.037246667 1.057 1.2080855e-38
0.21039334 -0.037246667 1.057 1.2542597e-38
0.21240667 -0.037246667 1.057 1.3003575e-38
0.21381143 -0.037140954 1.054 1.3187578e-38
0.21500002 -0.037 1.0500001 1.3648556e-38
0.21638 -0.036894288 1.0470001 1.4198828e-38
0.2183743 -0.036894288 1.0470001 1.4383219e-38
0.22036858 -0.036894288 1.0470001 1.4566887e-38
0.10340001 -0.034466669 1.034 1.5765806e-38
0.10506381 -0.034366667 1.031 1.0695046e-38
0.10702762 -0.034366667 1.031 8.9480054e-39
0.10867429 -0.034266666 1.028 1.0791918e-38
0.11063238 -0.034266666 1.028 1.1435511e-38
0.11259048 -0.034266666 1.028 1.1527706e-38
0.11421429 -0.034166671 1.0250001 9.8692708e-39
0.11616668 -0.034166671 1.0250001 6.9190107e-39
0.11777334 -0.03406667 1.0220001 6.1810729e-39
0.11936858 -0.033966668 1.0190001 7.656203e-39
0.12130953 -0.033966668 1.0190001 1.1798915e-38
0.12325048 -0.033966668 1.0190001 1.1614524e-38
0.12482286 -0.033866666 1.016 8.7661631e-39
0.1267581 -0.033866666 1.016 6.8300548e-39
0.12831333 -0.033766668 1.013 5.1730166e-39
0.13024285 -0.033766668 1.013 7.7544942e-39
0.13217239 -0.033766668 1.013 1.1062747e-38
0.13370477 -0.033666667 1.01 1.1154943e-38
0.13522573 -0.033566669 1.0070001 1.1710665e-38
0.13714382 -0.033566669 1.0070001 1.0419926e-38
0.13906191 -0.033566669 1.0070001 8.7650939e-39
0.14056002 -0.033466671 1.0040001 8.0275288e-39
0.14247239 -0.033466671 1.0040001 8.948067e-39
0.14438476 -0.033466671 1.0040001 1.4295414e-38
0.14629716 -0.033466671 1.0040001 1.5029028e-38
0.14820953 -0.033466671 1.0040001 9.4050949e-39
0.15012191 -0.033466671 1.0040001 7.7459001e-39
0.15248857 -0.033566669 1.0070001 9.4054214e-39
0.15440668 -0.033566669 1.0070001 9.5901658e-39
0.15632477 -0.033566669 1.0070001 6.4555144e-39
0.15824287 -0.033566669 1.0070001 3.3222446e-39
0.16016097 -0.033566669 1.0070001 7.6554392e-39
0.16207907 -0.033566669 1.0070001 9.4064724e-39
0.16399716 -0.033566669 1.0070001 1.0789407e-38
0.16591525 -0.033566669 1.0070001 1.0237355e-38
0.16833334 -0.033666667 1.01 1.0329551e-38
0.17025715 -0.033666667 1.01 1.2632266e-38
0.17269237 -0.033766668 1.013 1.0603962e-38
0.17513905 -0.033866666 1.016 9.0387941e-39
0.17759715 -0.033966668 1.0190001 1.060612e-38
0.1795381 -0.033966668 1.0190001 1.0607179e-38
0.18201335 -0.03406667 1.0220001 9.408636e-39
0.18396002 -0.03406667 1.0220001 8.9473047e-39
0.18590668 -0.03406667 1.0220001 1.2727326e-38
0.18840477 -0.034166671 1.0250001 1.3646035e-38
0.19035715 -0.034166671 1.0250001 1.4291404e-38
0.20146382 -0.035433333 1.0630001 1.6130983e-38
0.20348857 -0.035433333 1.0630001 1.4842796e-38
0.20493335 -0.035333335 1.0600001 1.2445709e-38
0.20695239 -0.035333335 1.0600001 1.0791583e-38
0.20838001 -0.035233337 1.057 1.2174517e-38
0.21039334 -0.035233337 1.057 1.2450748e-38
0.21240667 -0.035233337 1.057 1.263514e-38
0.21442001 -0.035233337 1.057 1.2910985e-38
0.21581905 -0.035133332 1.054 1.3925137e-38
0.21700002 -0.035000004 1.0500001 1.4567247e-38
0.21900001 -0.035000004 1.0500001 1.4475052e-38
0.10506381 -0.032402854 1.031 1.0787242e-38
0.10702762 -0.032402854 1.031 9.132775e-39
0.10899143 -0.032402854 1.031 1.0423514e-38
0.11063238 -0.032308571 1.028 1.1066735e-38
0.11259048 -0.032308571 1.028 1.2173083e-38
0.11454857 -0.032308571 1.028 1.1805382e-38
0.11616668 -0.032214291 1.0250001 1.1713186e-38
0.11811905 -0.032214291 1.0250001 1.2264928e-38
0.11972 -0.032120001 1.0220001 1.3186884e-38
0.12166667 -0.032120001 1.0220001 1.3003209e-38
0.12325048 -0.032025717 1.0190001 1.0329536e-38
0.12482286 -0.031931426 1.016 1.0330968e-38
0.1267581 -0.031931426 1.016 9.8699897e-39
0.12831333 -0.031837143 1.013 8.5777655e-39
0.13024285 -0.031837143 1.013 6.7338529e-39
0.13217239 -0.031837143 1.013 7.8398529e-39
0.13410191 -0.031837143 1.013 9.7759612e-39
0.13562857 -0.031742856 1.01 9.5901784e-39
0.13755237 -0.031742856 1.01 8.7604177e-39
0.13906191 -0.031648573 1.0070001 8.3019577e-39
0.14098001 -0.031648573 1.0070001 7.6565883e-39
0.14247239 -0.031554289 1.0040001 9.5008807e-39
0.14438476 -0.031554289 1.0040001 1.4479445e-38
0.14629716 -0.031554289 1.0040001 1.4108112e-38
0.14820953 -0.031554289 1.0040001 8.8529609e-39
0.15057048 -0.031648573 1.0070001 8.7611548e-39
0.15248857 -0.031648573 1.0070001 9.8675024e-39
0.15440668 -0.031648573 1.0070001 9.4990211e-39
0.15632477 -0.031648573 1.0070001 6.2721741e-39
0.15824287 -0.031648573 1.0070001 2.0355906e-39
0.16016097 -0.031648573 1.0070001 5.9078071e-39
0.16207907 -0.031648573 1.0070001 9.3160494e-39
0.16448571 -0.031742856 1.01 1.0330201e-38
0.16640952 -0.031742856 1.01 1.0697985e-38
0.16833334 -0.031742856 1.01 1.0237007e-38
0.17076285 -0.031837143 1.013 8.6710962e-39
0.17320381 -0.031931426 1.016 8.4867049e-39
0.1756562 -0.032025717 1.0190001 8.8544028e-39
0.17759715 -0.032025717 1.0190001 1.060612e-38
0.18006667 -0.032120001 1.0220001 1.0331668e-38
0.18201335 -0.032120001 1.0220001 8.948734e-39
0.18396002 -0.032120001 1.0220001 1.1061327e-38
0.18590668 -0.032120001 1.0220001 1.5671109e-38
0.18840477 -0.032214291 1.0250001 1.7607185e-38
0.19035715 -0.032214291 1.0250001 1.7514989e-38
0.19343525 -0.032402854 1.031 1.6319345e-38
0.20089525 -0.033314288 1.0600001 1.2723716e-38
0.2029143 -0.033314288 1.0600001 1.14373e-38
0.20493335 -0.033314288 1.0600001 1.2635843e-38
0.20636667 -0.033220001 1.057 1.3096837e-38
0.20838001 -0.033220001 1.057 1.3189032e-38
0.21039334 -0.033220001 1.057 1.3187941e-38
0.21240667 -0.033220001 1.057 1.3648919e-38
0.21502858 -0.033314288 1.0600001 1.410807e-38
0.21643333 -0.033220001 1.057 1.4200265e-38
0.21844667 -0.033220001 1.057 1.4475052e-38
0.10506381 -0.030439047 1.031 1.0880516e-38
0.10702762 -0.030439047 1.031 9.4082801e-39
0.10899143 -0.030439047 1.031 1.0514628e-38
0.11063238 -0.030350477 1.028 1.0424242e-38
0.11259048 -0.030350477 1.028 1.1346199e-38
0.11454857 -0.030350477 1.028 1.1805379e-38
0.11616668 -0.030261908 1.0250001 1.2174162e-38
0.11811905 -0.030261908 1.0250001 1.2266363e-38
0.11972 -0.030173335 1.0220001 1.2911732e-38
0.12166667 -0.030173335 1.0220001 1.2359661e-38
0.12325048 -0.030084763 1.0190001 1.0607944e-38
0.12482286 -0.02999619 1.016 9.8717974e-39
0.1267581 -0.02999619 1.016 9.0420367e-39
0.12869334 -0.02999619 1.016 9.5879798e-39
0.13062857 -0.02999619 1.016 5.2547852e-39
0.13217239 -0.029907618 1.013 3.6907245e-39
0.13410191 -0.029907618 1.013 6.4565934e-39
0.13562857 -0.029819047 1.01 8.9437398e-39
0.13755237 -0.029819047 1.01 1.041887e-38
0.13906191 -0.029730478 1.0070001 9.6841789e-39
0.14098001 -0.029730478 1.0070001 8.670027e-39
0.14289811 -0.029730478 1.0070001 9.685988e-39
0.14481619 -0.029730478 1.0070001 1.4019183e-38
0.1467343 -0.029730478 1.0070001 1.263734e-38
0.14865239 -0.029730478 1.0070001 8.7651233e-39
0.15057048 -0.029730478 1.0070001 1.0235898e-38
0.15248857 -0.029730478 1.0070001 9.4983331e-39
0.15440668 -0.029730478 1.0070001 9.9567623e-39
0.15632477 -0.029730478 1.0070001 7.283089e-39
0.15824287 -0.029730478 1.0070001 4.6322303e-40
0.16016097 -0.029730478 1.0070001 7.7466778e-39
0.16207907 -0.029730478 1.0070001 9.5012044e-39
0.16448571 -0.029819047 1.01 1.0054378e-38
0.16690381 -0.029907618 1.013 1.0792649e-38
0.16883335 -0.029907618 1.013 9.3175194e-39
0.17076285 -0.029907618 1.013 5.7236947e-39
0.17320381 -0.02999619 1.016 8.3051723e-39
0.1756562 -0.030084763 1.0190001 9.1313456e-39
0.17759715 -0.030084763 1.0190001 1.0422084e-38
0.18006667 -0.030173335 1.0220001 1.014728e-38
0.18201335 -0.030173335 1.0220001 8.8565412e-39
0.18396002 -0.030173335 1.0220001 1.1431189e-38
0.18590668 -0.030173335 1.0220001 1.7700492e-38
0.1889562 -0.030350477 1.028 1.8068921e-38
0.19147143 -0.030439047 1.031 1.6962574e-38
0.19343525 -0.030439047 1.031 1.5400633e-38
0.20089525 -0.03129524 1.0600001 1.1620612e-38
0.2029143 -0.03129524 1.0600001 9.9647217e-39
0.20493335 -0.03129524 1.0600001 1.2177417e-38
0.20636667 -0.031206667 1.057 1.2821676e-38
0.20838001 -0.031206667 1.057 1.2545089e-38
0.21039334 -0.031206667 1.057 1.2910988e-38
0.21240667 -0.031206667 1.057 1.4017336e-38
0.21502858 -0.03129524 1.0600001 1.456725e-38
0.21643333 -0.031206667 1.057 1.4475054e-38
0.21844667 -0.031206667 1.057 1.4474691e-38
0.10536952 -0.028558096 1.034 1.2631154e-38
0.10702762 -0.028475238 1.031 9.6848697e-39
0.10899143 -0.028475238 1.031 1.0238044e-38
0.11095524 -0.028475238 1.031 1.0606839e-38
0.11259048 -0.02839238 1.028 1.1620991e-38
0.11454857 -0.02839238 1.028 1.1528795e-38
0.11650667 -0.02839238 1.028 1.2081969e-38
0.11811905 -0.028309526 1.0250001 1.1989773e-38
0.11972 -0.028226668 1.0220001 1.2635143e-38
0.12166667 -0.028226668 1.0220001 1.2359998e-38
0.12325048 -0.028143812 1.0190001 1.1530237e-38
0.12482286 -0.028060952 1.016 1.0147312e-38
0.1267581 -0.028060952 1.016 6.7360739e-39
0.12869334 -0.028060952 1.016 4.6162933e-39
0.13062857 -0.028060952 1.016 1.6660332e-39
0.13256381 -0.028060952 1.016 2.7706375e-39
0.13410191 -0.027978096 1.013 4.6145501e-39
0.13603143 -0.027978096 1.013 5.6290622e-39
0.13796096 -0.027978096 1.013 1.0792017e-38
0.13947618 -0.027895236 1.01 1.0975634e-38
0.14139999 -0.027895236 1.01 8.4863518e-39
0.14332381 -0.027895236 1.01 9.5937853e-39
0.14481619 -0.027812384 1.0070001 1.4664545e-38
0.1467343 -0.027812384 1.0070001 1.5122279e-38
0.14865239 -0.027812384 1.0070001 1.1711041e-38
0.15057048 -0.027812384 1.0070001 1.0054366e-38
0.15248857 -0.027812384 1.0070001 7.6572792e-39
0.15440668 -0.027812384 1.0070001 7.5647206e-39
0.15632477 -0.027812384 1.0070001 5.8130036e-39
0.15824287 -0.027812384 1.0070001 6.179708e-39
0.16016097 -0.027812384 1.0070001 1.0051924e-38
0.16256191 -0.027895236 1.01 1.0698315e-38
0.16448571 -0.027895236 1.01 9.6841635e-39
0.16690381 -0.027978096 1.013 8.4887872e-39
0.16883335 -0.027978096 1.013 8.1200047e-39
0.17126857 -0.028060952 1.016 5.8137547e-39
0.17371525 -0.028143812 1.0190001 9.224993e-39
0.1756562 -0.028143812 1.0190001 1.0699009e-38
0.17812002 -0.028226668 1.0220001 1.0422422e-38
0.18006667 -0.028226668 1.0220001 9.6873809e-39
0.18201335 -0.028226668 1.0220001 8.9498158e-39
0.18396002 -0.028226668 1.0220001 1.1894684e-38
0.18590668 -0.028226668 1.0220001 1.7057639e-38
0.18950762 -0.028475238 1.031 1.567185e-38
0.19147143 -0.028475238 1.031 1.2445003e-38
0.19343525 -0.028475238 1.031 1.1069612e-38
0.20032667 -0.029193334 1.057 1.2729133e-38
0.20233999 -0.029193334 1.057 1.3557834e-38
0.20435335 -0.029193334 1.057 1.3465639e-38
0.20636667 -0.029193334 1.057 1.3004616e-38
0.20838001 -0.029193334 1.057 1.3096812e-38
0.21039334 -0.029193334 1.057 1.3923325e-38
0.21240667 -0.029193334 1.057 1.4107717e-38
0.21502858 -0.029276192 1.0600001 1.4382856e-38
0.21704763 -0.029276192 1.0600001 1.4475052e-38
0.10536952 -0.026588572 1.034 1.3091414e-38
0.10733905 -0.026588572 1.034 1.0511028e-38
0.10899143 -0.026511429 1.031 1.0695419e-38
0.11095524 -0.026511429 1.031 1.0514628e-38
0.11291905 -0.026511429 1.031 1.1436584e-38
0.11454857 -0.026434286 1.028 1.1252571e-38
0.11650667 -0.026434286 1.028 1.1713549e-38
0.11811905 -0.026357146 1.0250001 1.1530237e-38
0.12007144 -0.026357146 1.0250001 1.2083411e-38
0.12166667 -0.026280001 1.0220001 1.2819537e-38
0.12325048 -0.026202857 1.0190001 1.3003928e-38
0.12519144 -0.026202857 1.0190001 9.7810465e-39
0.1267581 -0.026125714 1.016 5.3556562e-39
0.12869334 -0.026125714 1.016 3.6057441e-39
0.13062857 -0.026125714 1.016 2.7759835e-39
0.13256381 -0.026125714 1.016 4.059507e-39
0.13449904 -0.026125714 1.016 5.811224e-39
0.13603143 -0.026048571 1.013 4.6184878e-39
0.13796096 -0.026048571 1.013 9.2282693e-39
0.13947618 -0.025971429 1.01 1.0240592e-38
0.14139999 -0.025971429 1.01 8.857658e-39
0.14332381 -0.025971429 1.01 8.2169676e-39
0.14524761 -0.025971429 1.01 1.3103336e-38
0.14717142 -0.025971429 1.01 1.4937196e-38
0.14909524 -0.025971429 1.01 1.1618153e-38
0.15101904 -0.025971429 1.01 1.0146917e-38
0.15294285 -0.025971429 1.01 7.7498307e-39
0.15486667 -0.025971429 1.01 7.5643703e-39
0.15679048 -0.025971429 1.01 7.5643703e-39
0.15871428 -0.025971429 1.01 8.3008815e-39
0.16063809 -0.025971429 1.01 1.0882359e-38
0.16304477 -0.026048571 1.013 1.1066735e-38
0.16497429 -0.026048571 1.013 9.8681918e-39
0.1673981 -0.026125714 1.016 6.3661676e-39
0.16933334 -0.026125714 1.016 6.6427545e-39
0.17126857 -0.026125714 1.016 5.2551509e-39
0.17371525 -0.026202857 1.0190001 1.0786889e-38
0.17617334 -0.026280001 1.0220001 1.0883416e-38
0.17812002 -0.026280001 1.0220001 1.0422438e-38
0.18059525 -0.026357146 1.0250001 9.8706903e-39
0.18254763 -0.026357146 1.0250001 9.7784947e-39
0.18450002 -0.026357146 1.0250001 1.1896483e-38
0.1864524 -0.026357146 1.0250001 1.2541852e-38
0.19005905 -0.026588572 1.034 1.1527013e-38
0.19202857 -0.026588572 1.034 1.1434817e-38
0.19775048 -0.027102858 1.054 1.12533e-38
0.1997581 -0.027102858 1.054 1.272843e-38
0.20233999 -0.027180001 1.057 1.3926951e-38
0.20435335 -0.027180001 1.057 1.3465972e-38
0.20636667 -0.027180001 1.057 1.2634752e-38
0.20838001 -0.027180001 1.057 1.3648903e-38
0.21039334 -0.027180001 1.057 1.4383222e-38
0.21300954 -0.027257143 1.0600001 1.4291026e-38
0.21502858 -0.027257143 1.0600001 1.4291023e-38
0.21704763 -0.027257143 1.0600001 1.4383219e-38
0.10536952 -0.024619048 1.034 1.3552748e-38
0.10733905 -0.024619048 1.034 9.9607532e-39
0.10930857 -0.024619048 1.034 9.8685576e-39
0.11095524 -0.024547618 1.031 1.0054378e-38
0.11291905 -0.024547618 1.031 1.1252921e-38
0.11488286 -0.024547618 1.031 1.1344414e-38
0.11650667 -0.024476191 1.028 1.1805392e-38
0.11846476 -0.024476191 1.028 1.1530237e-38
0.12007144 -0.024404764 1.0250001 1.1991215e-38
0.12202382 -0.024404764 1.0250001 1.2359995e-38
0.12361334 -0.024333334 1.0220001 1.2913169e-38
0.12519144 -0.024261907 1.0190001 1.005728e-38
0.12713239 -0.024261907 1.0190001 7.4758026e-39
0.12869334 -0.024190478 1.016 7.2907219e-39
0.13062857 -0.024190478 1.016 7.1985263e-39
0.13256381 -0.024190478 1.016 7.5632815e-39
0.13449904 -0.024190478 1.016 1.0144759e-38
0.13603143 -0.024119047 1.013 9.5019456e-39
0.13796096 -0.024119047 1.013 9.2253588e-39
0.13947618 -0.024047619 1.01 9.8732365e-39
0.14139999 -0.024047619 1.01 9.4122583e-39
0.14332381 -0.024047619 1.01 8.9534508e-39
0.14524761 -0.024047619 1.01 1.3286645e-38
0.14717142 -0.024047619 1.01 1.4385803e-38
0.14909524 -0.024047619 1.01 1.0329195e-38
0.15101904 -0.024047619 1.01 8.765419e-39
0.15294285 -0.024047619 1.01 9.4107884e-39
0.15486667 -0.024047619 1.01 9.317539e-39
0.15679048 -0.024047619 1.01 9.4097346e-39
0.15871428 -0.024047619 1.01 9.594109e-39
0.16063809 -0.024047619 1.01 9.7785003e-39
0.16304477 -0.024119047 1.013 9.6870376e-39
0.16497429 -0.024119047 1.013 1.0332407e-38
0.1673981 -0.024190478 1.016 1.1066022e-38
0.16933334 -0.024190478 1.016 1.0605044e-38
0.17126857 -0.024190478 1.016 1.0513188e-38
0.17371525 -0.024261907 1.0190001 1.1250754e-38
0.17617334 -0.024333334 1.0220001 1.106852e-38
0.17812002 -0.024333334 1.0220001 1.0146564e-38
0.18059525 -0.024404764 1.0250001 9.5026337e-39
0.18254763 -0.024404764 1.0250001 9.5948293e-39
0.18504 -0.024476191 1.028 1.0606839e-38
0.19045429 -0.024928572 1.0470001 1.226636e-38
0.19244859 -0.024928572 1.0470001 1.3372695e-38
0.19574286 -0.025095237 1.054 1.4571238e-38
0.19775048 -0.025095237 1.054 1.4754585e-38
0.1997581 -0.025095237 1.054 1.3371651e-38
0.20233999 -0.025166668 1.057 1.2913124e-38
0.20435335 -0.025166668 1.057 1.3097515e-38
0.20636667 -0.025166668 1.057 1.3369808e-38
0.20897144 -0.025238097 1.0600001 1.4015178e-38
0.21099049 -0.025238097 1.0600001 1.4199184e-38
0.21300954 -0.025238097 1.0600001 1.4199184e-38
0.21502858 -0.025238097 1.0600001 1.429031e-38
0.1077543 -0.022737145 1.0380001 1.1894678e-38
0.10973144 -0.022737145 1.0380001 1.0511744e-38
0.11127809 -0.022649525 1.034 1.0054366e-38
0.11291905 -0.022583811 1.031 1.1252909e-38
0.11488286 -0.022583811 1.031 1.1436602e-38
0.11684667 -0.022583811 1.031 1.1805385e-38
0.11846476 -0.022518095 1.028 1.1530237e-38
0.12042286 -0.022518095 1.028 1.1991215e-38
0.12202382 -0.022452382 1.0250001 1.2175966e-38
0.12361334 -0.022386668 1.0220001 1.2544749e-38
0.12556002 -0.022386668 1.0220001 1.0795208e-38
0.12713239 -0.022320952 1.0190001 9.0434912e-39
0.12907334 -0.022320952 1.0190001 1.0239142e-38
0.13062857 -0.022255238 1.016 8.9484033e-39
0.13256381 -0.022255238 1.016 7.8391593e-39
0.13449904 -0.022255238 1.016 1.0328441e-38
0.13603143 -0.022189524 1.013 1.0146579e-38
0.13796096 -0.022189524 1.013 9.8699925e-39
0.13989046 -0.022189524 1.013 1.0424268e-38
0.14139999 -0.022123808 1.01 9.5023114e-39
0.14332381 -0.022123808 1.01 8.6772142e-39
0.14524761 -0.022123808 1.01 1.2826018e-38
0.14717142 -0.022123808 1.01 1.3926617e-38
0.14909524 -0.022123808 1.01 1.0791966e-38
0.15101904 -0.022123808 1.01 1.0051507e-38
0.15294285 -0.022123808 1.01 1.0235898e-38
0.15486667 -0.022123808 1.01 1.0051154e-38
0.15679048 -0.022123808 1.01 1.0880914e-38
0.15871428 -0.022123808 1.01 9.9622077e-39
0.16111524 -0.022189524 1.013 8.394882e-39
0.16304477 -0.022189524 1.013 7.6630399e-39
0.16546287 -0.022255238 1.016 1.0336713e-38
0.1673981 -0.022255238 1.016 1.2267079e-38
0.16933334 -0.022255238 1.016 1.1898296e-38
0.17177428 -0.022320952 1.0190001 1.0423902e-38
0.17422669 -0.022386668 1.0220001 1.0700489e-38
0.17617334 -0.022386668 1.0220001 1.1251126e-38
0.17812002 -0.022386668 1.0220001 1.0236974e-38
0.18059525 -0.022452382 1.0250001 9.4097122e-39
0.1830819 -0.022518095 1.028 9.962886e-39
0.18558 -0.022583811 1.031 1.0332059e-38
0.19100001 -0.023000002 1.0500001 1.3005733e-38
0.193 -0.023000002 1.0500001 1.3282697e-38
0.19574286 -0.023087619 1.054 1.3559283e-38
0.19775048 -0.023087619 1.054 1.4202471e-38
0.1997581 -0.023087619 1.054 1.3188319e-38
0.20176572 -0.023087619 1.054 1.2634026e-38
0.20377333 -0.023087619 1.054 1.3279395e-38
0.20695239 -0.023219049 1.0600001 1.3830051e-38
0.10577715 -0.020760002 1.0380001 1.4566897e-38
0.1077543 -0.020760002 1.0380001 1.2263113e-38
0.10973144 -0.020760002 1.0380001 1.0419201e-38
0.11127809 -0.020680001 1.034 9.8699799e-39
0.11324762 -0.020680001 1.034 1.1160719e-38
0.11488286 -0.020620001 1.031 1.1252208e-38
0.11684667 -0.020620001 1.031 1.1620991e-38
0.11846476 -0.020559998 1.028 1.1530237e-38
0.12042286 -0.020559998 1.028 1.2083411e-38
0.12238095 -0.020559998 1.028 1.1900098e-38
0.12361334 -0.020440001 1.0220001 1.2361077e-38
0.12556002 -0.020440001 1.0220001 1.189869e-38
0.12713239 -0.020380002 1.0190001 1.0700147e-38
0.12907334 -0.020380002 1.0190001 1.0700829e-38
0.13062857 -0.02032 1.016 1.0977416e-38
0.13256381 -0.02032 1.016 1.1066738e-38
0.13449904 -0.02032 1.016 1.0513564e-38
0.13603143 -0.020260001 1.013 9.5022834e-39
0.13796096 -0.020260001 1.013 1.0608631e-38
0.13989046 -0.020260001 1.013 1.079378e-38
0.14182 -0.020260001 1.013 9.6874327e-39
0.14332381 -0.020199999 1.01 9.5041205e-39
0.14524761 -0.020199999 1.01 1.3468533e-38
0.14717142 -0.020199999 1.01 1.4110285e-38
0.14909524 -0.020199999 1.01 1.3741503e-38
0.15101904 -0.020199999 1.01 1.2912112e-38
0.15294285 -0.020199999 1.01 1.2543329e-38
0.15486667 -0.020199999 1.01 1.3095405e-38
0.15679048 -0.020199999 1.01 1.3740774e-38
0.15871428 -0.020199999 1.01 1.3003928e-38
0.16111524 -0.020260001 1.013 9.0395158e-39
0.16304477 -0.020260001 1.013 8.1204307e-39
0.16546287 -0.02032 1.016 1.0978495e-38
0.1673981 -0.02032 1.016 1.2541858e-38
0.16983335 -0.020380002 1.0190001 1.2541858e-38
0.17177428 -0.020380002 1.0190001 1.1712836e-38
0.17422669 -0.020440001 1.0220001 1.0975271e-38
0.17617334 -0.020440001 1.0220001 1.0699031e-38
0.17864287 -0.020500001 1.0250001 9.6848796e-39
0.18112381 -0.020559998 1.028 8.7661504e-39
0.1830819 -0.020559998 1.028 1.1071041e-38
0.18558 -0.020620001 1.031 1.2267461e-38
0.18990858 -0.020879999 1.044 1.4941135e-38
0.193 -0.021000002 1.0500001 1.447658e-38
0.19574286 -0.02108 1.054 1.300145e-38
0.19775048 -0.02108 1.054 1.2635107e-38
0.1997581 -0.02108 1.054 1.300389e-38
0.20176572 -0.02108 1.054 1.355419e-38
0.20377333 -0.02108 1.054 1.4015168e-38
0.10577715 -0.01878286 1.0380001 1.5857283e-38
0.1077543 -0.01878286 1.0380001 1.327725e-38
0.11004857 -0.018837143 1.041 1.0511381e-38
0.11170858 -0.01878286 1.0380001 1.0054003e-38
0.11368572 -0.01878286 1.0380001 1.116035e-38
0.11521715 -0.018710475 1.034 1.1435518e-38
0.11684667 -0.01865619 1.031 1.1896496e-38
0.11846476 -0.018601904 1.028 1.1621354e-38
0.12042286 -0.018601904 1.028 1.2266723e-38
0.12238095 -0.018601904 1.028 1.1900101e-38
0.12361334 -0.018493334 1.0220001 1.2176688e-38
0.12556002 -0.018493334 1.0220001 1.2819549e-38
0.12713239 -0.018439047 1.0190001 1.1897593e-38
0.12907334 -0.018439047 1.0190001 1.1528798e-38
0.13101429 -0.018439047 1.0190001 1.1713189e-38
0.13256381 -0.018384762 1.016 1.2082688e-38
0.13449904 -0.018384762 1.016 1.097634e-38
0.1364343 -0.018384762 1.016 9.6863369e-39
0.13836953 -0.018384762 1.016 1.1714641e-38
0.14030477 -0.018384762 1.016 1.4016295e-38
0.14182 -0.018330475 1.013 1.0236274e-38
0.14374952 -0.018330475 1.013 9.228876e-39
0.14567904 -0.018330475 1.013 1.3654266e-38
0.14760856 -0.018330475 1.013 1.3560702e-38
0.1495381 -0.018330475 1.013 1.2915332e-38
0.15146762 -0.018330475 1.013 1.2729883e-38
0.15339714 -0.018330475 1.013 1.2729883e-38
0.15532666 -0.018330475 1.013 1.2636957e-38
0.15725619 -0.018330475 1.013 1.300574e-38
0.15918572 -0.018330475 1.013 1.3003233e-38
0.16111524 -0.018330475 1.013 8.3934513e-39
0.16352762 -0.018384762 1.016 6.2750664e-39
0.16546287 -0.018384762 1.016 8.9487396e-39
0.1673981 -0.018384762 1.016 1.1433706e-38
0.16983335 -0.018439047 1.0190001 1.2632249e-38
0.17177428 -0.018439047 1.0190001 1.1619934e-38
0.17422669 -0.018493334 1.0220001 1.0790173e-38
0.1766905 -0.018547621 1.0250001 1.0699738e-38
0.17864287 -0.018547621 1.0250001 9.6855858e-39
0.18112381 -0.018601904 1.028 8.4902824e-39
0.18361619 -0.01865619 1.031 1.0887369e-38
0.18612 -0.018710475 1.034 1.2727348e-38
0.18990858 -0.01889143 1.044 1.3557109e-38
0.19373523 -0.019072382 1.054 1.3924089e-38
0.19574286 -0.019072382 1.054 1.3186524e-38
0.19775048 -0.019072382 1.054 1.2724782e-38
0.1997581 -0.019072382 1.054 1.3646738e-38
0.20176572 -0.019072382 1.054 1.4014442e-38
0.10608286 -0.016854286 1.041 1.6225349e-38
0.10806572 -0.016854286 1.041 1.4567603e-38
0.11004857 -0.016854286 1.041 1.0695387e-38
0.11203143 -0.016854286 1.041 9.9611035e-39
0.11368572 -0.016805716 1.0380001 1.1251842e-38
0.11566287 -0.016805716 1.0380001 1.1252205e-38
0.11718667 -0.016740954 1.034 1.1805379e-38
0.11881047 -0.016692381 1.031 1.1713549e-38
0.12042286 -0.016643809 1.028 1.2174527e-38
0.12238095 -0.016643809 1.028 1.1991581e-38
0.12397621 -0.016595239 1.0250001 1.2360363e-38
0.12556002 -0.016546667 1.0220001 1.2728057e-38
0.12750667 -0.016546667 1.0220001 1.2912448e-38
0.12907334 -0.016498096 1.0190001 1.2911739e-38
0.13101429 -0.016498096 1.0190001 1.3464913e-38
0.13295525 -0.016498096 1.0190001 1.3741493e-38
0.13489619 -0.016498096 1.0190001 1.4294667e-38
0.1364343 -0.016449524 1.016 1.401666e-38
0.13836953 -0.016449524 1.016 1.401666e-38
0.14030477 -0.016449524 1.016 1.2085209e-38
0.14182 -0.016400954 1.013 1.6671024e-39
0.14374952 -0.016400954 1.013 7.626735e-40
0.14567904 -0.016400954 1.013 9.3368671e-39
0.14760856 -0.016400954 1.013 1.3649645e-38
0.1495381 -0.016400954 1.013 1.374184e-38
0.15146762 -0.016400954 1.013 1.3097226e-38
0.15339714 -0.016400954 1.013 1.2728444e-38
0.15532666 -0.016400954 1.013 1.2359654e-38
0.15725619 -0.016400954 1.013 1.2820632e-38
0.15918572 -0.016400954 1.013 1.2635878e-38
0.16159239 -0.016449524 1.016 7.1041404e-39
0.16352762 -0.016449524 1.016 5.7251394e-39
0.16546287 -0.016449524 1.016 6.7392913e-39
0.1673981 -0.016449524 1.016 9.3171662e-39
0.16983335 -0.016498096 1.0190001 1.1898644e-38
0.17177428 -0.016498096 1.0190001 1.1805029e-38
0.17473811 -0.016595239 1.0250001 1.0698681e-38
0.1766905 -0.016595239 1.0250001 1.0607176e-38
0.17916571 -0.016643809 1.028 1.0054003e-38
0.18165238 -0.016692381 1.031 8.8583587e-39
0.18415047 -0.016740954 1.034 1.0886663e-38
0.18738 -0.016854286 1.041 1.2727691e-38
0.19045429 -0.016951431 1.0470001 1.2358909e-38
0.193 -0.017000001 1.0500001 1.2816622e-38
0.19500001 -0.017000001 1.0500001 1.3554187e-38
0.19700001 -0.017000001 1.0500001 1.3460912e-38
0.19900002 -0.017000001 1.0500001 1.4014086e-38
0.10837714 -0.014914286 1.044 1.4751654e-38
0.11036572 -0.014914286 1.044 1.0971633e-38
0.11203143 -0.014871428 1.041 9.960365e-39
0.11401429 -0.014871428 1.041 1.1343299e-38
0.11599714 -0.014871428 1.041 1.1252558e-38
0.11718667 -0.014771429 1.034 1.1713537e-38
0.11881047 -0.014728571 1.031 1.1529881e-38
0.12077429 -0.014728571 1.031 1.1990859e-38
0.12238095 -0.014685715 1.028 1.1899382e-38
0.12397621 -0.014642859 1.0250001 1.2268165e-38
0.12592858 -0.014642859 1.0250001 1.2360358e-38
0.12750667 -0.0146 1.0220001 1.2452553e-38
0.12945335 -0.0146 1.0220001 1.2635878e-38
0.13101429 -0.014557144 1.0190001 1.3004661e-38
0.13295525 -0.014557144 1.0190001 1.3097923e-38
0.13489619 -0.014557144 1.0190001 1.3651097e-38
0.13683714 -0.014557144 1.0190001 1.4293607e-38
0.13836953 -0.014514286 1.016 1.3279455e-38
0.14030477 -0.014514286 1.016 8.7712105e-39
0.14224 -0.014514286 1.016 2.8921259e-40
0.14417525 -0.014514286 1.016 2.3267384e-39
0.14611048 -0.014514286 1.016 8.3194403e-39
0.1480457 -0.014514286 1.016 1.1162168e-38
0.14998096 -0.014514286 1.016 1.2452906e-38
0.15191619 -0.014514286 1.016 1.3740426e-38
0.15385143 -0.014514286 1.016 1.3187253e-38
0.15578666 -0.014514286 1.016 1.2084502e-38
0.15772191 -0.014514286 1.016 1.2637676e-38
0.15965714 -0.014514286 1.016 1.2636597e-38
0.16159239 -0.014514286 1.016 8.0268156e-39
0.16352762 -0.014514286 1.016 7.5661779e-39
0.16546287 -0.014514286 1.016 7.9349605e-39
0.16789238 -0.014557144 1.0190001 8.6739548e-39
0.16983335 -0.014557144 1.0190001 1.1163237e-38
0.17228001 -0.0146 1.0220001 1.1621354e-38
0.17473811 -0.014642859 1.0250001 1.0515006e-38
0.1766905 -0.014642859 1.0250001 1.0514621e-38
0.17916571 -0.014685715 1.028 1.0238034e-38
0.18165238 -0.014728571 1.031 8.8579958e-39
0.18415047 -0.014771429 1.034 1.0701908e-38
0.18684001 -0.014828573 1.0380001 1.2173426e-38
0.19045429 -0.014957144 1.0470001 1.2818795e-38
0.193 -0.015000001 1.0500001 1.3184669e-38
0.19500001 -0.015000001 1.0500001 1.3737842e-38
0.19700001 -0.015000001 1.0500001 1.3737489e-38
0.19900002 -0.015000001 1.0500001 1.4106272e-38
0.10837714 -0.012925714 1.044 1.4937124e-38
0.11036572 -0.012925714 1.044 1.1157103e-38
0.11203143 -0.012888571 1.041 9.5004757e-39
0.11401429 -0.012888571 1.041 1.0791215e-38
0.11599714 -0.012888571 1.041 1.1159637e-38
0.11764001 -0.01285143 1.0380001 1.1897202e-38
0.1191562 -0.012801905 1.034 1.1529884e-38
0.12077429 -0.012764761 1.031 1.1990862e-38
0.12238095 -0.012727619 1.028 1.1899385e-38
