# .PCD v0.7 - Point Cloud Data file format
VERSION 0.7
FIELDS x y z rgb
SIZE 4 4 4 4
TYPE F F F F
COUNT 1 1 1 1
WIDTH 1015
HEIGHT 1
VIEWPOINT 0 0 0 1 0 0 0
POINTS 1015
DATA ascii
-0.14482954 0.066705719 0.63100004 1.5771272e-38
-0.16325143 0.069091432 0.64200002 8.5756705e-39
-0.1617762 0.068983816 0.64100003 1.281667e-38
-0.16055524 0.068983816 0.64100003 1.2542981e-38
-0.15858857 0.068660952 0.63800001 1.3741524e-38
-0.15688001 0.06844572 0.63600004 1.3466737e-38
-0.15566859 0.06844572 0.63600004 1.4204303e-38
-0.15397142 0.068230473 0.634 1.4021e-38
-0.15276381 0.068230473 0.634 1.4666369e-38
-0.15155619 0.068230473 0.634 1.4850764e-38
-0.1498743 0.06801524 0.63200003 1.5035155e-38
-0.14867048 0.06801524 0.63200003 1.5034439e-38
-0.14723335 0.067907616 0.63100004 1.5311026e-38
-0.14603144 0.067907616 0.63100004 1.5863115e-38
-0.16447428 0.070314288 0.64200002 9.0347934e-39
-0.16299714 0.070204765 0.64100003 9.1310051e-39
-0.16101906 0.069876194 0.63800001 1.2726635e-38
-0.15955333 0.06976667 0.63700002 1.2819923e-38
-0.15784287 0.069547623 0.63500005 1.4295053e-38
-0.15638666 0.0694381 0.634 1.4295053e-38
-0.15517905 0.0694381 0.634 1.4479445e-38
-0.15348572 0.069219045 0.63200003 1.4481265e-38
-0.15228191 0.069219045 0.63200003 1.5034439e-38
-0.15107809 0.069219045 0.63200003 1.5311729e-38
-0.14963715 0.069109522 0.63100004 1.549612e-38
-0.14843525 0.069109522 0.63100004 1.5586884e-38
-0.14723335 0.069109522 0.63100004 1.5771275e-38
-0.16595525 0.071648575 0.64300001 6.2692776e-39
-0.16447428 0.071537144 0.64200002 8.9429509e-39
-0.16299714 0.071425714 0.64100003 9.6841663e-39
-0.1605143 0.070868574 0.63600004 1.2818818e-38
-0.15930286 0.070868574 0.63600004 1.3004308e-38
-0.15784287 0.070757151 0.63500005 1.4202851e-38
-0.15638666 0.070645712 0.634 1.4294344e-38
-0.15517905 0.070645712 0.634 1.4847518e-38
-0.15348572 0.070422858 0.63200003 1.4665641e-38
-0.15204096 0.070311435 0.63100004 1.531101e-38
-0.15083906 0.070311435 0.63100004 1.5403572e-38
-0.14940001 0.070200004 0.63000005 1.5587963e-38
-0.14820002 0.070200004 0.63000005 1.5495764e-38
-0.16595525 0.072873332 0.64300001 6.915726e-39
-0.16447428 0.072760001 0.64200002 9.3128124e-39
-0.16274285 0.072533339 0.64000005 9.7767122e-39
-0.16000952 0.071853332 0.634 1.2819168e-38
-0.15880191 0.071853332 0.634 1.3187976e-38
-0.15759428 0.071853332 0.634 1.4386519e-38
-0.15589334 0.071626663 0.63200003 1.4663483e-38
-0.15468954 0.071626663 0.63200003 1.494007e-38
-0.15324287 0.07151334 0.63100004 1.4942214e-38
-0.15204096 0.07151334 0.63100004 1.5310996e-38
-0.15060002 0.071400009 0.63000005 1.5403574e-38
-0.16595525 0.074098095 0.64300001 7.1919626e-39
-0.16421811 0.073867619 0.64100003 9.4046577e-39
-0.16172573 0.073291428 0.63600004 1.0145495e-38
-0.16000952 0.073060952 0.634 1.3003559e-38
-0.15880191 0.073060952 0.634 1.34642e-38
-0.15759428 0.073060952 0.634 1.4478352e-38
-0.15589334 0.072830476 0.63200003 1.4663483e-38
-0.15468954 0.072830476 0.63200003 1.5124461e-38
-0.15324287 0.072715245 0.63100004 1.5035128e-38
-0.15204096 0.072715245 0.63100004 1.5403911e-38
-0.15036094 0.072484761 0.62900001 1.5311379e-38
-0.16595525 0.075322859 0.64300001 7.3760035e-39
-0.16344953 0.074737139 0.63800001 9.496503e-39
-0.16172573 0.074502863 0.63600004 1.0145135e-38
-0.16000952 0.074268572 0.634 1.318759e-38
-0.15880191 0.074268572 0.634 1.3556395e-38
-0.15759428 0.074268572 0.634 1.4478352e-38
-0.15589334 0.074034289 0.63200003 1.4663833e-38
-0.15468954 0.074034289 0.63200003 1.5124811e-38
-0.15324287 0.07391715 0.63100004 1.5126253e-38
-0.15180001 0.073800005 0.63000005 1.5587231e-38
-0.16466478 0.075952381 0.63800001 7.2834393e-39
-0.16344953 0.075952381 0.63800001 9.0351563e-39
-0.16147144 0.075595245 0.63500005 1.0328794e-38
-0.16000952 0.075476192 0.634 1.3002468e-38
-0.15880191 0.075476192 0.634 1.3740421e-38
-0.15759428 0.075476192 0.634 1.4570182e-38
-0.15589334 0.075238094 0.63200003 1.4571637e-38
-0.15468954 0.075238094 0.63200003 1.5032616e-38
-0.15324287 0.075119056 0.63100004 1.5034423e-38
-0.15180001 0.075000003 0.63000005 1.5495401e-38
-0.16466478 0.077167623 0.63800001 7.3756378e-39
-0.16319335 0.07704667 0.63700002 8.8507679e-39
-0.16121714 0.076683804 0.634 9.7756234e-39
-0.16000952 0.076683804 0.634 1.2818079e-38
-0.15880191 0.076683804 0.634 1.3648932e-38
-0.15709715 0.076441906 0.63200003 1.4386497e-38
-0.15589334 0.076441906 0.63200003 1.4571989e-38
-0.15444477 0.076320961 0.63100004 1.5125163e-38
-0.15300001 0.076200008 0.63000005 1.503371e-38
-0.10654762 0.075595237 0.625 1.7062374e-38
-0.16293715 0.078137144 0.63600004 8.2057516e-39
-0.16121714 0.077891432 0.634 9.4064752e-39
-0.16000952 0.077891432 0.634 1.2909909e-38
-0.15880191 0.077891432 0.634 1.3004291e-38
-0.15709715 0.077645719 0.63200003 1.4202834e-38
-0.15589334 0.077645719 0.63200003 1.4387246e-38
-0.15444477 0.077522859 0.63100004 1.5124811e-38
-0.15300001 0.077400006 0.63000005 1.4941514e-38
-0.10994286 0.076662861 0.62400001 1.7340396e-38
-0.10875428 0.076662861 0.62400001 1.7524061e-38
-0.10773809 0.076785713 0.625 1.7063083e-38
-0.10654762 0.076785713 0.625 1.6970534e-38
-0.16293715 0.079348572 0.63600004 8.2053984e-39
-0.16147144 0.079223812 0.63500005 8.945497e-39
-0.16000952 0.079099044 0.634 1.2172344e-38
-0.15880191 0.079099044 0.634 1.3371982e-38
-0.15709715 0.078849532 0.63200003 1.4201742e-38
-0.15589334 0.078849532 0.63200003 1.4478717e-38
-0.15444477 0.078724764 0.63100004 1.5216282e-38
-0.15300001 0.078600004 0.63000005 1.5124834e-38
-0.11332667 0.07772667 0.62300003 1.8169431e-38
-0.11113143 0.07785143 0.62400001 1.7708097e-38
-0.10994286 0.07785143 0.62400001 1.743151e-38
-0.10875428 0.07785143 0.62400001 1.7431866e-38
-0.10756572 0.07785143 0.62400001 1.7063083e-38
-0.10654762 0.07797619 0.625 1.7154563e-38
-0.16293715 0.080560006 0.63600004 7.8359097e-39
-0.16147144 0.080433339 0.63500005 8.7596666e-39
-0.16000952 0.080306664 0.634 1.2263101e-38
-0.15880191 0.080306664 0.634 1.2450748e-38
-0.15709715 0.080053337 0.63200003 1.3557096e-38
-0.15589334 0.080053337 0.63200003 1.4018092e-38
-0.15444477 0.07992667 0.63100004 1.512444e-38
-0.15300001 0.07980001 0.63000005 1.4665997e-38
-0.12104762 0.078533329 0.62 1.8813715e-38
-0.11986667 0.078533329 0.62 1.872116e-38
-0.11868571 0.078533329 0.62 1.8444573e-38
-0.11750476 0.078533329 0.62 1.8260189e-38
-0.11651144 0.078660011 0.62100005 1.8352384e-38
-0.11532858 0.078660011 0.62100005 1.8260907e-38
-0.11432952 0.078786671 0.62200004 1.8260907e-38
-0.11332667 0.078913331 0.62300003 1.7893207e-38
-0.11113143 0.079040006 0.62400001 1.7431873e-38
-0.10994286 0.079040006 0.62400001 1.7339677e-38
-0.10875428 0.079040006 0.62400001 1.743151e-38
-0.10756572 0.079040006 0.62400001 1.6970532e-38
-0.10654762 0.079166666 0.625 1.6970532e-38
-0.16293715 0.081771433 0.63600004 7.8359125e-39
-0.16121714 0.081514291 0.634 7.9316982e-39
-0.16000952 0.081514291 0.634 1.1250741e-38
-0.15880191 0.081514291 0.634 1.2358165e-38
-0.15709715 0.08125715 0.63200003 1.309573e-38
-0.15589334 0.08125715 0.63200003 1.3925879e-38
-0.15444477 0.081128575 0.63100004 1.4755639e-38
-0.15300001 0.081000008 0.63000005 1.4664901e-38
-0.12222857 0.079714283 0.62 1.8445296e-38
-0.12104762 0.079714283 0.62 1.83531e-38
-0.11986667 0.079714283 0.62 1.8445296e-38
-0.11868571 0.079714283 0.62 1.8168709e-38
-0.11750476 0.079714283 0.62 1.8076163e-38
-0.11651144 0.079842865 0.62100005 1.8168359e-38
-0.11532858 0.079842865 0.62100005 1.7892491e-38
-0.11432952 0.079971433 0.62200004 1.7800295e-38
-0.11332667 0.0801 0.62300003 1.7708097e-38
-0.11232001 0.080228575 0.62400001 1.7523705e-38
-0.11113143 0.080228575 0.62400001 1.7339317e-38
-0.10994286 0.080228575 0.62400001 1.7247121e-38
-0.10875428 0.080228575 0.62400001 1.7155642e-38
-0.10773809 0.080357142 0.625 1.6786859e-38
-0.10654762 0.080357142 0.625 1.6970171e-38
-0.10569429 0.080614291 0.62700003 1.6416998e-38
-0.16121714 0.082721904 0.634 7.6533163e-39
-0.16000952 0.082721904 0.634 1.1433337e-38
-0.15880191 0.082721904 0.634 1.1620262e-38
-0.15709715 0.082460955 0.63200003 1.3003196e-38
-0.15589334 0.082460955 0.63200003 1.3373794e-38
-0.15444477 0.08233048 0.63100004 1.4387945e-38
-0.12222857 0.080895238 0.62 1.8169431e-38
-0.12104762 0.080895238 0.62 1.8261626e-38
-0.11986667 0.080895238 0.62 1.8445299e-38
-0.11868571 0.080895238 0.62 1.8076516e-38
-0.11750476 0.080895238 0.62 1.8168359e-38
-0.11651144 0.08102572 0.62100005 1.8168359e-38
-0.11532858 0.08102572 0.62100005 1.770846e-38
-0.11451334 0.081286669 0.62300003 1.7616264e-38
-0.11332667 0.081286669 0.62300003 1.7523708e-38
-0.11232001 0.081417143 0.62400001 1.7431513e-38
-0.11113143 0.081417143 0.62400001 1.7063093e-38
-0.11011904 0.081547618 0.625 1.7063093e-38
-0.10892857 0.081547618 0.625 1.6970894e-38
-0.10773809 0.081547618 0.625 1.6786503e-38
-0.10654762 0.081547618 0.625 1.6602112e-38
-0.10569429 0.081808574 0.62700003 1.6233329e-38
-0.16121714 0.083929524 0.634 8.5741936e-39
-0.16000952 0.083929524 0.634 1.1155671e-38
-0.15880191 0.083929524 0.634 1.1804643e-38
-0.15709715 0.083664767 0.63200003 1.2818795e-38
-0.15589334 0.083664767 0.63200003 1.337271e-38
-0.15444477 0.083532386 0.63100004 1.3925884e-38
-0.12340952 0.082076192 0.62 1.8076869e-38
-0.12222857 0.082076192 0.62 1.7800643e-38
-0.12104762 0.082076192 0.62 1.7708447e-38
-0.11986667 0.082076192 0.62 1.7707734e-38
-0.11868571 0.082076192 0.62 1.7615538e-38
-0.11750476 0.082076192 0.62 1.7707383e-38
-0.11669905 0.082340956 0.62200004 1.7707383e-38
-0.11551429 0.082340956 0.62200004 1.7615901e-38
-0.11451334 0.08247333 0.62300003 1.7339314e-38
-0.11332667 0.08247333 0.62300003 1.7155289e-38
-0.11232001 0.082605712 0.62400001 1.7063093e-38
-0.11113143 0.082605712 0.62400001 1.6878702e-38
-0.10994286 0.082605712 0.62400001 1.669431e-38
-0.10892857 0.082738094 0.625 1.6602115e-38
-0.10773809 0.082738094 0.625 1.6141137e-38
-0.10654762 0.082738094 0.625 1.6141139e-38
-0.10535714 0.082738094 0.625 1.6141139e-38
-0.10466667 0.08313524 0.62800002 1.6141487e-38
-0.16147144 0.085271433 0.63500005 8.9429607e-39
-0.16000952 0.085137136 0.634 1.0510286e-38
-0.15880191 0.085137136 0.634 1.1342586e-38
-0.15759428 0.085137136 0.634 1.2909912e-38
-0.15589334 0.08486858 0.63200003 1.2726635e-38
-0.15444477 0.084734291 0.63100004 1.3740787e-38
-0.12340952 0.083257139 0.62 1.7892841e-38
-0.12222857 0.083257139 0.62 1.7432226e-38
-0.12104762 0.083257139 0.62 1.7524421e-38
-0.11986667 0.083257139 0.62 1.779921e-38
-0.11868571 0.083257139 0.62 1.7522624e-38
-0.11750476 0.083257139 0.62 1.7338238e-38
-0.11669905 0.083525717 0.62200004 1.7522629e-38
-0.11551429 0.083525717 0.62200004 1.7615541e-38
-0.11432952 0.083525717 0.62200004 1.7246758e-38
-0.11332667 0.083659999 0.62300003 1.6970178e-38
-0.11214 0.083659999 0.62300003 1.6877983e-38
-0.11095334 0.083659999 0.62300003 1.687762e-38
-0.10994286 0.083794288 0.62400001 1.687762e-38
-0.10875428 0.083794288 0.62400001 1.678578e-38
-0.10773809 0.08392857 0.625 1.6324802e-38
-0.10654762 0.08392857 0.625 1.5957108e-38
-0.10535714 0.08392857 0.625 1.5957108e-38
-0.10466667 0.08433143 0.62800002 1.5957812e-38
-0.16172573 0.086617149 0.63600004 7.6522022e-39
-0.16026191 0.08648096 0.63500005 9.4039192e-39
-0.1590524 0.08648096 0.63500005 1.0788321e-38
-0.15759428 0.086344764 0.634 1.3277603e-38
-0.15638666 0.086344764 0.634 1.3278011e-38
-0.15468954 0.086072385 0.63200003 1.3646793e-38
-0.12459048 0.0844381 0.62 1.7247118e-38
-0.12340952 0.0844381 0.62 1.7154923e-38
-0.12222857 0.0844381 0.62 1.7247118e-38
-0.12104762 0.0844381 0.62 1.7154923e-38
-0.11986667 0.0844381 0.62 1.7246758e-38
-0.11868571 0.0844381 0.62 1.7246758e-38
-0.11750476 0.0844381 0.62 1.715456e-38
-0.11669905 0.084710479 0.62200004 1.7246756e-38
-0.11551429 0.084710479 0.62200004 1.6970178e-38
-0.11432952 0.084710479 0.62200004 1.6877983e-38
-0.11332667 0.084846668 0.62300003 1.6877983e-38
-0.11214 0.084846668 0.62300003 1.6877983e-38
-0.11095334 0.084846668 0.62300003 1.6602112e-38
-0.10994286 0.084982857 0.62400001 1.6602112e-38
-0.10875428 0.084982857 0.62400001 1.6509909e-38
-0.10773809 0.085119046 0.625 1.6141127e-38
-0.10654762 0.085119046 0.625 1.56816e-38
-0.10535714 0.085119046 0.625 1.56816e-38
-0.10140001 0.085800007 0.63000005 1.5771625e-38
-0.16299714 0.088519052 0.64100003 7.4671047e-39
-0.16076668 0.087966673 0.63700002 8.0202785e-39
-0.1590524 0.08769048 0.63500005 1.0141484e-38
-0.15759428 0.087552384 0.634 1.2815158e-38
-0.15638666 0.087552384 0.634 1.3277988e-38
-0.15468954 0.087276198 0.63200003 1.3923358e-38
-0.12577142 0.085619047 0.62 1.7338588e-38
-0.12459048 0.085619047 0.62 1.7062367e-38
-0.12340952 0.085619047 0.62 1.7154563e-38
-0.12222857 0.085619047 0.62 1.7430431e-38
-0.12104762 0.085619047 0.62 1.7338235e-38
-0.11986667 0.085619047 0.62 1.7062727e-38
-0.11868571 0.085619047 0.62 1.7154923e-38
-0.11750476 0.085619047 0.62 1.7246758e-38
-0.11669905 0.08589524 0.62200004 1.7062367e-38
-0.11551429 0.08589524 0.62200004 1.6785424e-38
-0.11451334 0.086033337 0.62300003 1.6785424e-38
-0.11332667 0.086033337 0.62300003 1.6785787e-38
-0.11214 0.086033337 0.62300003 1.6693592e-38
-0.11113143 0.086171433 0.62400001 1.6417721e-38
-0.10994286 0.086171433 0.62400001 1.6417721e-38
-0.10892857 0.086309522 0.625 1.6048938e-38
-0.10773809 0.086309522 0.625 1.6048938e-38
-0.10688858 0.086585723 0.62700003 1.5773793e-38
-0.10569429 0.086585723 0.62700003 1.5681598e-38
-0.10483333 0.086861908 0.62900001 1.5957452e-38
-0.16076668 0.08918 0.63700002 5.9919999e-39
-0.15930286 0.089040004 0.63600004 7.378453e-39
-0.15784287 0.088900007 0.63500005 1.0881887e-38
-0.15638666 0.088759996 0.634 1.2723703e-38
-0.15468954 0.088480003 0.63200003 1.4659811e-38
-0.12577142 0.086800002 0.62 1.7062014e-38
-0.12459048 0.086800002 0.62 1.6877976e-38
-0.12340952 0.086800002 0.62 1.6970171e-38
-0.12222857 0.086800002 0.62 1.6970171e-38
-0.1214381 0.087080002 0.62200004 1.6877976e-38
-0.12006001 0.086940005 0.62100005 1.6785424e-38
-0.11887715 0.086940005 0.62100005 1.687762e-38
-0.11788382 0.087080002 0.62200004 1.687762e-38
-0.11669905 0.087080002 0.62200004 1.687762e-38
-0.11551429 0.087080002 0.62200004 1.687762e-38
-0.11451334 0.087219998 0.62300003 1.6785424e-38
-0.11332667 0.087219998 0.62300003 1.6509919e-38
-0.11232001 0.087360002 0.62400001 1.6602115e-38
-0.11113143 0.087360002 0.62400001 1.6693945e-38
-0.11011904 0.087499999 0.625 1.6601749e-38
-0.10892857 0.087499999 0.625 1.6693579e-38
-0.10773809 0.087499999 0.625 1.6785775e-38
-0.10688858 0.087780006 0.62700003 1.6509916e-38
-0.10586286 0.087920003 0.62800002 1.6325525e-38
-0.10483333 0.088059999 0.62900001 1.6142192e-38
-0.15930286 0.090251438 0.63600004 6.272488e-39
-0.15784287 0.090109527 0.63500005 9.499335e-39
-0.15663335 0.090109527 0.63500005 1.1249274e-38
-0.15517905 0.089967623 0.634 1.3738556e-38
-0.12695238 0.087980948 0.62 1.6693585e-38
-0.12577142 0.087980948 0.62 1.6970171e-38
-0.12459048 0.087980948 0.62 1.6970169e-38
-0.12360859 0.08812286 0.62100005 1.6877973e-38
-0.12242573 0.08812286 0.62100005 1.7061648e-38
-0.1214381 0.088264771 0.62200004 1.6969453e-38
-0.12025334 0.088264771 0.62200004 1.6969453e-38
-0.11906858 0.088264771 0.62200004 1.6969453e-38
-0.11788382 0.088264771 0.62200004 1.6969453e-38
-0.11688667 0.088406667 0.62300003 1.7061648e-38
-0.11570001 0.088406667 0.62300003 1.715456e-38
-0.11451334 0.088406667 0.62300003 1.6785777e-38
-0.11350857 0.088548578 0.62400001 1.6693592e-38
-0.11232001 0.088548578 0.62400001 1.6693592e-38
-0.11130952 0.088690475 0.625 1.6694298e-38
-0.11011904 0.088690475 0.625 1.6602102e-38
-0.10927714 0.08897429 0.62700003 1.6969806e-38
-0.10825524 0.089116193 0.62800002 1.6693219e-38
-0.10705905 0.089116193 0.62800002 1.6141476e-38
-0.10603143 0.089258097 0.62900001 1.5957084e-38
-0.10380001 0.089400008 0.63000005 1.3840535e-38
-0.10156096 0.089541912 0.63100004 1.0616925e-38
-0.15980381 0.09175048 0.63800001 6.9171904e-39
-0.15809143 0.091462858 0.63600004 7.1937773e-39
-0.15663335 0.091319054 0.63500005 8.1181732e-39
-0.15517905 0.091175236 0.634 9.5011077e-39
-0.12479144 0.089305721 0.62100005 1.7246393e-38
-0.12360859 0.089305721 0.62100005 1.7154197e-38
-0.1214381 0.089449525 0.62200004 1.7246039e-38
-0.12025334 0.089449525 0.62200004 1.7246037e-38
-0.11906858 0.089449525 0.62200004 1.7338232e-38
-0.11788382 0.089449525 0.62200004 1.7338951e-38
-0.11688667 0.089593336 0.62300003 1.7431147e-38
-0.11570001 0.089593336 0.62300003 1.7431144e-38
-0.11451334 0.089593336 0.62300003 1.7246753e-38
-0.11350857 0.08973714 0.62400001 1.7063443e-38
-0.11232001 0.08973714 0.62400001 1.6510269e-38
-0.11130952 0.089880951 0.625 1.6050359e-38
-0.11047143 0.090168573 0.62700003 1.5312794e-38
-0.10825524 0.090312384 0.62800002 1.3745858e-38
-0.10603143 0.090456195 0.62900001 1.1904088e-38
-0.10380001 0.090600006 0.63000005 1.1444505e-38
-0.16030477 0.093257144 0.64000005 6.9175435e-39
-0.15809143 0.092674293 0.63600004 6.9175435e-39
-0.15663335 0.092528574 0.63500005 5.7265211e-39
-0.15542382 0.092528574 0.63500005 7.3860424e-39
-0.15397142 0.092382856 0.634 8.1218124e-39
-0.12380762 0.090634294 0.62200004 1.7154549e-38
-0.1214381 0.090634294 0.62200004 1.7246744e-38
-0.12025334 0.090634294 0.62200004 1.7338937e-38
-0.11906858 0.090634294 0.62200004 1.7338937e-38
-0.11788382 0.090634294 0.62200004 1.7247104e-38
-0.11688667 0.090779997 0.62300003 1.7062713e-38
-0.11570001 0.090779997 0.62300003 1.6879394e-38
-0.11451334 0.090779997 0.62300003 1.6510611e-38
-0.11350857 0.090925716 0.62400001 1.5498624e-38
-0.1125 0.091071427 0.625 1.5222038e-38
-0.11130952 0.091071427 0.625 1.5037637e-38
-0.10945143 0.091508567 0.62800002 1.3380639e-38
-0.10825524 0.091508567 0.62800002 1.2366487e-38
-0.10722952 0.091654286 0.62900001 1.1813298e-38
-0.10603143 0.091654286 0.62900001 1.1628907e-38
-0.105 0.091800004 0.63000005 1.2088077e-38
-0.16030477 0.094476193 0.64000005 6.4579975e-39
-0.15858857 0.094180949 0.63800001 6.6423887e-39
-0.15663335 0.093738101 0.63500005 6.0009948e-39
-0.15542382 0.093738101 0.63500005 7.3839293e-39
-0.15397142 0.093590476 0.634 7.1998659e-39
-0.12380762 0.091819048 0.62200004 1.5680498e-38
-0.1214381 0.091819048 0.62200004 1.5404994e-38
-0.12025334 0.091819048 0.62200004 1.5037637e-38
-0.11906858 0.091819048 0.62200004 1.4945441e-38
-0.11807334 0.091966666 0.62300003 1.3748003e-38
-0.11707429 0.092114285 0.62400001 1.3379221e-38
-0.11588571 0.092114285 0.62400001 1.3102958e-38
-0.11469714 0.092114285 0.62400001 1.2734175e-38
-0.11369047 0.092261903 0.625 1.2459023e-38
-0.1125 0.092261903 0.625 1.2459023e-38
-0.11166572 0.092557147 0.62700003 1.2550853e-38
-0.11064762 0.092704765 0.62800002 1.2458657e-38
-0.10842761 0.092852384 0.62900001 1.2458657e-38
-0.10722952 0.092852384 0.62900001 1.264268e-38
-0.16055524 0.095844768 0.64100003 6.7345844e-39
-0.15908572 0.095695242 0.64000005 6.4579975e-39
-0.15688001 0.095097147 0.63600004 5.6329284e-39
-0.15542382 0.094947629 0.63500005 7.2002541e-39
-0.15397142 0.094798096 0.634 7.4761053e-39
-0.12499239 0.093003817 0.62200004 1.5129109e-38
-0.12380762 0.093003817 0.62200004 1.4852522e-38
-0.12282 0.093153335 0.62300003 1.4484816e-38
-0.12163334 0.093153335 0.62300003 1.4116033e-38
-0.12044667 0.093153335 0.62300003 1.3839804e-38
-0.11926001 0.093153335 0.62300003 1.3471021e-38
-0.11807334 0.093153335 0.62300003 1.3379544e-38
-0.11707429 0.093302861 0.62400001 1.2734175e-38
-0.11588571 0.093302861 0.62400001 1.2642333e-38
-0.11488095 0.093452379 0.625 1.2734528e-38
-0.11369047 0.093452379 0.625 1.2826721e-38
-0.11286 0.093751431 0.62700003 1.2826721e-38
-0.10842761 0.094050474 0.62900001 1.2734891e-38
-0.10620001 0.094200008 0.63000005 1.1996597e-38
-0.16477714 0.098125711 0.648 8.0210072e-39
-0.16303809 0.09782286 0.64600003 8.1132028e-39
-0.16080572 0.097217143 0.64200002 7.102648e-39
-0.15908572 0.096914291 0.64000005 6.8260611e-39
-0.15712667 0.096460007 0.63700002 6.1843071e-39
-0.15566859 0.096308582 0.63600004 7.1062634e-39
-0.15421431 0.096157156 0.63500005 7.475762e-39
-0.15276381 0.096005715 0.634 8.3055226e-39
-0.12282 0.094340004 0.62300003 1.3103298e-38
-0.12163334 0.094340004 0.62300003 1.3103298e-38
-0.12044667 0.094340004 0.62300003 1.3102948e-38
-0.11926001 0.094340004 0.62300003 1.2918557e-38
-0.11807334 0.094340004 0.62300003 1.2735244e-38
-0.11707429 0.09449143 0.62400001 1.2919636e-38
-0.11607143 0.094642855 0.625 1.3011831e-38
-0.11488095 0.094642855 0.625 1.3011831e-38
-0.11405428 0.094945721 0.62700003 1.3287687e-38
-0.11286 0.094945721 0.62700003 1.3379882e-38
-0.10962571 0.095248573 0.62900001 1.1996976e-38
-0.10842761 0.095248573 0.62900001 1.1628193e-38
-0.10740001 0.095400006 0.63000005 1.0983184e-38
-0.10620001 0.095400006 0.63000005 1.0522206e-38
-0.10516667 0.095551439 0.63100004 1.0798417e-38
-0.16601142 0.099360004 0.648 8.8471651e-39
-0.16477714 0.099360004 0.648 9.309588e-39
-0.16303809 0.099053338 0.64600003 8.3876317e-39
-0.16105619 0.098593332 0.64300001 7.2866791e-39
-0.15958287 0.098439999 0.64200002 7.6554617e-39
-0.15712667 0.097673342 0.63700002 7.1977205e-39
-0.15566859 0.097520001 0.63600004 7.566503e-39
-0.15421431 0.097366676 0.63500005 6.8314771e-39
-0.12400667 0.095526665 0.62300003 1.2918917e-38
-0.12282 0.095526665 0.62300003 1.3378813e-38
-0.12163334 0.095526665 0.62300003 1.3471009e-38
-0.12044667 0.095526665 0.62300003 1.3471011e-38
-0.11945143 0.095680006 0.62400001 1.3102229e-38
-0.11826286 0.095680006 0.62400001 1.3010396e-38
-0.1172619 0.095833331 0.625 1.3102592e-38
-0.11607143 0.095833331 0.625 1.3011468e-38
-0.11524858 0.096140005 0.62700003 1.3011468e-38
-0.11405428 0.096140005 0.62700003 1.3195504e-38
-0.10962571 0.096446671 0.62900001 1.1720386e-38
-0.10842761 0.096446671 0.62900001 1.1535995e-38
-0.10722952 0.096446671 0.62900001 1.0707316e-38
-0.10620001 0.096600004 0.63000005 1.0983903e-38
-0.10516667 0.096753336 0.63100004 1.1443802e-38
-0.16601142 0.10059428 0.648 8.1113979e-39
-0.16477714 0.10059428 0.648 7.9280857e-39
-0.16329047 0.10043905 0.64700001 7.6514988e-39
-0.16180763 0.10028381 0.64600003 6.9171932e-39
-0.16008002 0.099973343 0.64400005 7.6547582e-39
-0.15786667 0.09935239 0.64000005 7.1058808e-39
-0.15591334 0.098886669 0.63700002 8.3966196e-39
-0.15421431 0.098576196 0.63500005 8.5828256e-39
-0.12301714 0.096868575 0.62400001 1.3379885e-38
-0.12163334 0.096713334 0.62300003 1.3379885e-38
-0.12044667 0.096713334 0.62300003 1.2641982e-38
-0.11945143 0.096868575 0.62400001 1.1996613e-38
-0.11826286 0.096868575 0.62400001 1.1812938e-38
-0.1172619 0.097023807 0.625 1.1536351e-38
-0.11607143 0.097023807 0.625 1.1076083e-38
-0.11524858 0.097334288 0.62700003 1.0983887e-38
-0.11304 0.097489528 0.62800002 1.0891697e-38
-0.1108238 0.097644761 0.62900001 1.1905105e-38
-0.10962571 0.097644761 0.62900001 1.2180295e-38
-0.10842761 0.097644761 0.62900001 1.2641273e-38
-0.10722952 0.097644761 0.62900001 1.3101528e-38
-0.10620001 0.097800009 0.63000005 1.3654702e-38
-0.10516667 0.097955242 0.63100004 1.4483024e-38
-0.10412953 0.098110482 0.63200003 1.4575219e-38
-0.16601142 0.10182857 0.648 7.9270039e-39
-0.16477714 0.10182857 0.648 7.6514988e-39
-0.16329047 0.10167143 0.64700001 7.5593032e-39
-0.16180763 0.10151429 0.64600003 7.1001425e-39
-0.16057715 0.10151429 0.64600003 8.0220988e-39
-0.15836 0.10088571 0.64200002 7.0151271e-39
-0.15664762 0.10057143 0.64000005 9.1356266e-39
-0.15445715 0.099942856 0.63600004 9.136728e-39
-0.15300478 0.099785723 0.63500005 9.5977062e-39
-0.12301714 0.098057143 0.62400001 1.2827787e-38
-0.12182858 0.098057143 0.62400001 1.2735592e-38
-0.12064 0.098057143 0.62400001 1.1813654e-38
-0.11945143 0.098057143 0.62400001 1.1813654e-38
-0.11826286 0.098057143 0.62400001 1.1720026e-38
-0.1172619 0.098214284 0.625 1.1535635e-38
-0.11644286 0.098528571 0.62700003 1.098354e-38
-0.11524858 0.098528571 0.62700003 1.0891344e-38
-0.1142362 0.098685719 0.62800002 1.1075029e-38
-0.11304 0.098685719 0.62800002 1.1720399e-38
-0.11202191 0.098842859 0.62900001 1.2549065e-38
-0.1108238 0.098842859 0.62900001 1.3102239e-38
-0.10962571 0.098842859 0.62900001 1.3746193e-38
-0.10842761 0.098842859 0.62900001 1.3838388e-38
-0.10722952 0.098842859 0.62900001 1.4206451e-38
-0.10620001 0.099000007 0.63000005 1.4759624e-38
-0.10516667 0.099157147 0.63100004 1.5404278e-38
-0.10412953 0.099314287 0.63200003 1.5496473e-38
-0.16477714 0.10306286 0.648 7.4667544e-39
-0.16329047 0.10290381 0.64700001 7.6511457e-39
-0.16180763 0.10274477 0.64600003 7.3767322e-39
-0.16008002 0.10242668 0.64400005 8.3908841e-39
-0.15860666 0.10226762 0.64300001 7.566503e-39
-0.15689239 0.10194953 0.64100003 9.7791982e-39
-0.15470001 0.10131334 0.63700002 9.8724882e-39
-0.15300478 0.10099524 0.63500005 1.1071031e-38
-0.12420572 0.099245712 0.62400001 1.0523631e-38
-0.12301714 0.099245712 0.62400001 1.1906187e-38
-0.12182858 0.099245712 0.62400001 1.1998383e-38
-0.12064 0.099245712 0.62400001 1.1997336e-38
-0.11945143 0.099245712 0.62400001 1.2827097e-38
-0.11826286 0.099245712 0.62400001 1.3747245e-38
-0.11644286 0.099722862 0.62700003 1.4667778e-38
-0.1142362 0.09988191 0.62800002 1.5680858e-38
-0.11304 0.09988191 0.62800002 1.6234031e-38
-0.11202191 0.10004095 0.62900001 1.6601735e-38
-0.1108238 0.10004095 0.62900001 1.6786126e-38
-0.1098 0.1002 0.63000005 1.7062361e-38
-0.10860001 0.1002 0.63000005 1.7154557e-38
-0.10740001 0.1002 0.63000005 1.6877976e-38
-0.10620001 0.1002 0.63000005 1.678578e-38
-0.10516667 0.10035905 0.63100004 1.6602102e-38
-0.10412953 0.1005181 0.63200003 1.6509907e-38
-0.16477714 0.10429715 0.648 7.5593004e-39
-0.16329047 0.10413619 0.64700001 7.651496e-39
-0.16180763 0.10397524 0.64600003 7.5600416e-39
-0.16008002 0.10365334 0.64400005 8.3898023e-39
-0.15836 0.10333143 0.64200002 7.566503e-39
-0.15689239 0.10317048 0.64100003 9.5026113e-39
-0.15494286 0.10268762 0.63800001 9.4136708e-39
-0.15348667 0.10252667 0.63700002 1.0151236e-38
-0.12420572 0.10043429 0.62400001 1.2088815e-38
-0.12301714 0.10043429 0.62400001 1.3194077e-38
-0.12182858 0.10043429 0.62400001 1.3655055e-38
-0.12083333 0.10059524 0.625 1.4207523e-38
-0.11964285 0.10059524 0.625 1.4299718e-38
-0.11845238 0.10059524 0.625 1.4575953e-38
-0.11543238 0.1010781 0.62800002 1.6050007e-38
-0.11322001 0.10123905 0.62900001 1.6602454e-38
-0.11202191 0.10123905 0.62900001 1.6970152e-38
-0.11100001 0.10140001 0.63000005 1.6877956e-38
-0.1098 0.10140001 0.63000005 1.6879041e-38
-0.10860001 0.10140001 0.63000005 1.6971236e-38
-0.10740001 0.10140001 0.63000005 1.6695733e-38
-0.10620001 0.10140001 0.63000005 1.6142559e-38
-0.10516667 0.10156096 0.63100004 1.6049647e-38
-0.10412953 0.10172191 0.63200003 1.5588669e-38
-0.16329047 0.10536857 0.64700001 7.9280857e-39
-0.16180763 0.10520571 0.64600003 7.3767294e-39
-0.16008002 0.10488001 0.64400005 7.8377075e-39
-0.15836 0.10455429 0.64200002 7.3813887e-39
-0.15689239 0.10439143 0.64100003 8.4877363e-39
-0.15494286 0.10390285 0.63800001 8.1214971e-39
-0.15372762 0.10390285 0.63800001 8.4902796e-39
-0.1520343 0.10357714 0.63600004 8.3998664e-39
-0.12321428 0.10178571 0.625 1.7431133e-38
-0.12202381 0.10178571 0.625 1.7615524e-38
-0.12083333 0.10178571 0.625 1.7339304e-38
-0.11964285 0.10178571 0.625 1.7339304e-38
-0.11883143 0.10211143 0.62700003 1.7339314e-38
-0.11322001 0.10243714 0.62900001 1.6048914e-38
-0.11100001 0.10260001 0.63000005 1.4574863e-38
-0.1098 0.10260001 0.63000005 1.3747272e-38
-0.10860001 0.10260001 0.63000005 1.3286294e-38
-0.10740001 0.10260001 0.63000005 1.0155636e-38
-0.10620001 0.10260001 0.63000005 9.3258753e-39
-0.10516667 0.10276286 0.63100004 8.3124268e-39
-0.10412953 0.10292572 0.63200003 7.759253e-39
-0.16329047 0.10660095 0.64700001 7.7433413e-39
-0.16180763 0.10643619 0.64600003 7.8366313e-39
-0.16008002 0.10610668 0.64400005 8.1132182e-39
-0.15836 0.10577714 0.64200002 7.197345e-39
-0.15689239 0.10561238 0.64100003 8.4880838e-39
-0.15494286 0.1051181 0.63800001 8.0285952e-39
-0.15372762 0.1051181 0.63800001 8.6739646e-39
-0.15227334 0.10495333 0.63700002 8.4906552e-39
-0.11883143 0.10330572 0.62700003 1.6972303e-38
-0.1144181 0.10363524 0.62900001 1.3841958e-38
-0.11220001 0.10380001 0.63000005 1.4116384e-38
-0.11100001 0.10380001 0.63000005 1.3286623e-38
-0.10997429 0.10396477 0.63100004 1.1539222e-38
-0.10877238 0.10396477 0.63100004 9.7875051e-39
-0.10757048 0.10396477 0.63100004 5.5558934e-39
-0.10636857 0.10396477 0.63100004 5.8324803e-39
-0.10533334 0.10412953 0.63200003 5.6448674e-39
-0.16329047 0.10783334 0.64700001 7.4674803e-39
-0.16180763 0.10766667 0.64600003 7.0090385e-39
-0.16008002 0.10733335 0.64400005 7.4700166e-39
-0.15860666 0.10716667 0.64300001 7.3813887e-39
-0.15689239 0.10683334 0.64100003 9.9628663e-39
-0.15542859 0.10666667 0.64000005 1.1897552e-38
-0.15372762 0.10633333 0.63800001 1.2542922e-38
-0.15227334 0.10616667 0.63700002 1.3188313e-38
-0.12002572 0.1045 0.62700003 1.4391178e-38
-0.11561619 0.10483333 0.62900001 9.4182825e-39
-0.1134 0.105 0.63000005 7.8549393e-39
-0.11220001 0.105 0.63000005 5.9227911e-39
-0.10997429 0.10516667 0.63100004 1.0464771e-39
-0.10774095 0.10533334 0.63200003 1.0433129e-39
-0.16180763 0.10889714 0.64600003 5.6289655e-39
-0.15983142 0.10839143 0.64300001 7.749465e-39
-0.15860666 0.10839143 0.64300001 9.0384087e-39
-0.15689239 0.1080543 0.64100003 1.1527691e-38
-0.15542859 0.10788572 0.64000005 1.2265281e-38
-0.15420954 0.10788572 0.64000005 1.3187237e-38
-0.15251239 0.10754857 0.63800001 1.309613e-38
-0.1111762 0.10636857 0.63100004 2.6033491e-39
-0.10894477 0.10653715 0.63200003 2.5176275e-39
-0.16180763 0.11012762 0.64600003 7.2866946e-39
-0.15983142 0.10961619 0.64300001 9.4993897e-39
-0.15860666 0.10961619 0.64300001 9.4090115e-39
-0.15689239 0.10927524 0.64100003 1.1068533e-38
-0.15542859 0.10910477 0.64000005 1.2080527e-38
-0.15420954 0.10910477 0.64000005 1.3371266e-38
-0.15251239 0.10876381 0.63800001 1.3740408e-38
-0.16008002 0.11101335 0.64400005 9.315381e-39
-0.15860666 0.11084095 0.64300001 9.2246175e-39
-0.15713714 0.11066858 0.64200002 1.0515356e-38
-0.15567143 0.11049619 0.64100003 1.1620991e-38
-0.15420954 0.11032382 0.64000005 1.3003925e-38
-0.15251239 0.10997905 0.63800001 1.3648578e-38
-0.16082571 0.11276285 0.64700001 1.0694026e-38
-0.15885335 0.11224001 0.64400005 9.5919707e-39
-0.15738191 0.11206571 0.64300001 1.0790514e-38
-0.15591429 0.11189143 0.64200002 1.208124e-38
-0.15445048 0.11171715 0.64100003 1.3279783e-38
-0.15299049 0.11154287 0.64000005 1.3461306e-38
-0.16082571 0.11399524 0.64700001 1.0605056e-38
-0.15934667 0.11381905 0.64600003 9.6841663e-39
-0.15762667 0.11346667 0.64400005 1.0974905e-38
-0.15615714 0.11329047 0.64300001 1.1804306e-38
-0.15469144 0.11311429 0.64200002 1.1804306e-38
-0.15346856 0.11311429 0.64200002 1.2998139e-38
-0.15200858 0.1129381 0.64100003 9.3103139e-39
-0.15959333 0.11522762 0.64700001 9.7760088e-39
-0.15811619 0.11504953 0.64600003 1.0421378e-38
-0.15640001 0.11469334 0.64400005 1.1801069e-38
-0.15493238 0.11451524 0.64300001 7.1912872e-39
-0.15370762 0.11451524 0.64300001 4.0421968e-39
-0.15224572 0.11433714 0.64200002 4.5953691e-39
-0.15055239 0.11398096 0.64000005 6.7065023e-39
-0.15959333 0.11646 0.64700001 9.6841691e-39
-0.15811619 0.11628 0.64600003 1.0421734e-38
-0.15688573 0.11628 0.64600003 1.2627947e-38
-0.15517333 0.11592001 0.64400005 3.6849707e-39
-0.15370762 0.11574 0.64300001 6.4306371e-39
-0.15224572 0.11556 0.64200002 6.7072198e-39
-0.15055239 0.11520001 0.64000005 7.8092458e-39
-0.15984 0.11787428 0.648 9.684532e-39
-0.15836096 0.11769238 0.64700001 1.014551e-38
-0.15712857 0.11769238 0.64700001 1.1706709e-38
-0.15565524 0.11751048 0.64600003 3.2247115e-39
-0.15394668 0.11714668 0.64400005 4.4095387e-39
-0.15248285 0.11696476 0.64300001 8.927119e-39
-0.15078762 0.11660096 0.64100003 1.2806451e-38
-0.15984 0.11910857 0.648 9.9614721e-39
-0.15836096 0.11892476 0.64700001 9.9614721e-39
-0.15712857 0.11892476 0.64700001 1.2348845e-38
-0.1558962 0.11892476 0.64700001 4.1434336e-39
-0.15442477 0.11874096 0.64600003 4.9609105e-39
-0.15272002 0.11837334 0.64400005 1.2520948e-38
-0.15102287 0.11800572 0.64200002 1.2991749e-38
-0.16008668 0.12052858 0.64900005 1.0421378e-38
-0.15860571 0.12034286 0.648 9.7760088e-39
-0.15712857 0.12015714 0.64700001 1.1430488e-38
-0.1558962 0.12015714 0.64700001 6.267533e-39
-0.15442477 0.11997144 0.64600003 7.3669806e-39
-0.15272002 0.11960001 0.64400005 1.6770935e-38
-0.1512581 0.11941428 0.64300001 1.5579667e-38
-0.14956668 0.11904286 0.64100003 7.650843e-39
-0.15860571 0.12157714 0.648 9.7752829e-39
-0.15737143 0.12157714 0.648 1.0879472e-38
-0.1558962 0.12138952 0.64700001 7.3760385e-39
-0.15466382 0.12138952 0.64700001 7.2809212e-39
-0.15319429 0.12120191 0.64600003 1.5209745e-38
-0.15149334 0.12082668 0.64400005 1.5673697e-38
-0.1498 0.12045144 0.64200002 4.7946128e-39
-0.15860571 0.12281142 0.648 8.5778187e-39
-0.15737143 0.12281142 0.648 1.0235542e-38
-0.15613714 0.12281142 0.648 1.0512129e-38
-0.15466382 0.12262191 0.64700001 9.959649e-39
-0.15319429 0.12243238 0.64600003 1.3463083e-38
-0.15149334 0.12205334 0.64400005 1.3649328e-38
-0.1498 0.12167428 0.64200002 3.2312219e-39
-0.15885049 0.12423715 0.64900005 9.4065032e-39
-0.15761429 0.12423715 0.64900005 9.8674533e-39
-0.15613714 0.12404571 0.648 1.078941e-38
-0.15490285 0.12404571 0.648 1.0421368e-38
-0.15343143 0.12385428 0.64700001 1.3002846e-38
-0.15196382 0.12366287 0.64600003 1.4015941e-38
-0.15003334 0.12308857 0.64300001 1.4773357e-39
-0.16380858 0.12740667 0.65900004 1.2079821e-38
-0.16205999 0.12702 0.65700001 1.1527366e-38
-0.15909524 0.12566668 0.65000004 9.0380836e-39
-0.15761429 0.12547334 0.64900005 8.7636421e-39
-0.15637811 0.12547334 0.64900005 1.134512e-38
-0.15490285 0.12528001 0.648 1.2449672e-38
-0.15343143 0.12508667 0.64700001 1.3187237e-38
-0.15196382 0.12489333 0.64600003 1.3372004e-38
-0.15003334 0.12431334 0.64300001 1.6631591e-39
-0.16380858 0.1286619 0.65900004 1.2079821e-38
-0.16205999 0.12827143 0.65700001 1.1803234e-38
-0.16007431 0.12768573 0.65400004 9.4061473e-39
-0.15858573 0.12749048 0.65300006 8.3955603e-39
-0.15710096 0.12729524 0.65200001 1.1069234e-38
-0.15514192 0.12670954 0.64900005 1.2082332e-38
-0.15366857 0.12651429 0.648 1.3188679e-38
-0.15219904 0.12631905 0.64700001 1.3556046e-38
-0.15026668 0.12573333 0.64400005 2.8613534e-39
-0.14880858 0.1255381 0.64300001 3.2285917e-42
-0.16380858 0.12991714 0.65900004 1.1804306e-38
-0.16230668 0.12972 0.65800005 1.1987981e-38
-0.16105334 0.12972 0.65800005 9.6830901e-39
-0.15955715 0.12952286 0.65700001 8.7636421e-39
-0.15782382 0.12912858 0.65500003 1.0515359e-38
-0.15514192 0.12794574 0.64900005 1.1713905e-38
-0.15366857 0.12774858 0.648 1.3373426e-38
-0.15219904 0.12755142 0.64700001 1.3097219e-38
-0.15026668 0.12696001 0.64400005 3.6010694e-39
-0.16380858 0.13117239 0.65900004 1.162064e-38
-0.16230668 0.13097335 0.65800005 1.2172369e-38
-0.16080856 0.13077429 0.65700001 1.0328457e-38
-0.15955715 0.13077429 0.65700001 9.3142894e-39
-0.15782382 0.13037619 0.65500003 1.0881615e-38
-0.15609811 0.12997811 0.65300006 1.1345123e-38
-0.15366857 0.12898286 0.648 1.309684e-38
-0.15219904 0.12878382 0.64700001 1.2730953e-38
-0.15073334 0.12858477 0.64600003 6.4616507e-39
-0.16205999 0.13202572 0.65700001 1.2080171e-38
-0.16031905 0.1316238 0.65500003 1.042065e-38
-0.15907143 0.1316238 0.65500003 9.3157467e-39
-0.15758286 0.13142286 0.65400004 1.0422094e-38
-0.15609811 0.13122191 0.65300006 1.1345123e-38
-0.15366857 0.13021713 0.648 1.2820253e-38
-0.15243429 0.13021713 0.648 1.2729506e-38
-0.15073334 0.12981524 0.64600003 1.2545115e-38
-0.14904001 0.12941335 0.64400005 9.2279568e-39
-0.16156667 0.13287142 0.65500003 1.208089e-38
-0.16031905 0.13287142 0.65500003 1.0421368e-38
-0.15907143 0.13287142 0.65500003 9.5919735e-39
-0.15758286 0.13266857 0.65400004 1.0237343e-38
-0.15633714 0.13266857 0.65400004 1.1252205e-38
-0.15390572 0.13165429 0.64900005 1.263514e-38
-0.15243429 0.13145143 0.648 1.2727348e-38
-0.15096666 0.13124858 0.64700001 1.3557109e-38
-0.14904001 0.13064002 0.64400005 1.3098684e-38
-0.16156667 0.13411906 0.65500003 1.189578e-38
-0.16007431 0.13391431 0.65400004 1.125041e-38
-0.15882857 0.13391431 0.65400004 1.0237716e-38
-0.15758286 0.13391431 0.65400004 9.9611287e-39
-0.15609811 0.13370954 0.65300006 1.0331694e-38
-0.1548543 0.13370954 0.65300006 1.2175606e-38
-0.15266953 0.13289048 0.64900005 1.2359644e-38
-0.1512 0.13268572 0.648 1.3005014e-38
-0.14973429 0.13248095 0.64700001 1.3559279e-38
-0.14827238 0.13227619 0.64600003 1.4112453e-38
-0.16007431 0.13516001 0.65400004 1.1250416e-38
-0.15882857 0.13516001 0.65400004 1.0605772e-38
-0.15758286 0.13516001 0.65400004 1.0052598e-38
-0.15609811 0.13495335 0.65300006 1.0423163e-38
-0.1548543 0.13495335 0.65300006 1.2267076e-38
-0.15266953 0.13412668 0.64900005 1.2267096e-38
-0.1512 0.13392 0.648 1.2820269e-38
-0.14996572 0.13392 0.648 1.3557837e-38
-0.1485019 0.13371333 0.64700001 1.4111011e-38
-0.14704192 0.13350667 0.64600003 1.448051e-38
-0.16007431 0.13640572 0.65400004 1.1527366e-38
-0.15882857 0.13640572 0.65400004 1.0330641e-38
-0.15734191 0.13619716 0.65300006 9.5930763e-39
-0.15609811 0.13619716 0.65300006 1.01473e-38
-0.1548543 0.13619716 0.65300006 1.1806821e-38
-0.15337524 0.13598858 0.65200001 1.2450767e-38
-0.15143333 0.13536286 0.64900005 1.2911745e-38
-0.14996572 0.13515429 0.648 1.3282317e-38
-0.1485019 0.13494572 0.64700001 1.3927686e-38
-0.14704192 0.13473713 0.64600003 1.4295755e-38
-0.16007431 0.13765144 0.65400004 1.1711757e-38
-0.15882857 0.13765144 0.65400004 1.1344053e-38
-0.15734191 0.13744096 0.65300006 1.0514293e-38
-0.15609811 0.13744096 0.65300006 1.0606839e-38
-0.1548543 0.13744096 0.65300006 1.1989773e-38
-0.15337524 0.13723047 0.65200001 1.2083774e-38
-0.15143333 0.13659906 0.64900005 1.2544752e-38
-0.14996572 0.13638857 0.648 1.2728437e-38
-0.1485019 0.13617809 0.64700001 1.3650393e-38
-0.16031905 0.13910952 0.65500003 1.1620637e-38
-0.15907143 0.13910952 0.65500003 1.1436246e-38
-0.15758286 0.13889715 0.65400004 1.0422094e-38
-0.15633714 0.13889715 0.65400004 1.0239145e-38
-0.1548543 0.13868478 0.65300006 1.1714275e-38
-0.15337524 0.13847238 0.65200001 1.1990859e-38
-0.15166669 0.13804764 0.65000004 1.282062e-38
-0.15019716 0.13783523 0.64900005 1.3097219e-38
-0.14873143 0.13762285 0.648 1.2912828e-38
-0.14726953 0.13741048 0.64700001 1.3557046e-38
-0.16227715 0.14207143 0.66300005 1.1528445e-38
-0.15955715 0.14078571 0.65700001 1.1436249e-38
-0.15758286 0.14014286 0.65400004 1.0422097e-38
-0.15633714 0.14014286 0.65400004 1.0238422e-38
-0.1548543 0.13992859 0.65300006 1.1621356e-38
-0.15361048 0.13992859 0.65300006 1.1714628e-38
-0.15213333 0.13971429 0.65200001 1.272878e-38
-0.15042858 0.13928573 0.65000004 1.3373443e-38
-0.14873143 0.13885714 0.648 1.3004661e-38
-0.14726953 0.13864285 0.64700001 1.4293164e-38
-0.16354001 0.14333428 0.66300005 1.1988341e-38
-0.16227715 0.14333428 0.66300005 1.1711754e-38
-0.16052857 0.1429019 0.66100001 1.1344416e-38
-0.15782382 0.14160477 0.65500003 1.0975634e-38
-0.15633714 0.14138858 0.65400004 1.0700126e-38
-0.15509143 0.14138858 0.65400004 1.1345495e-38
-0.15361048 0.14117239 0.65300006 1.1530237e-38
-0.15213333 0.14095619 0.65200001 1.2452193e-38
-0.15089144 0.14095619 0.65200001 1.3648944e-38
-0.14896096 0.14030764 0.64900005 1.3280162e-38
-0.16354001 0.14459716 0.66300005 1.1896871e-38
-0.16227715 0.14459716 0.66300005 1.171248e-38
-0.16077144 0.14437905 0.66200006 1.162064e-38
-0.15854667 0.14350668 0.65800005 1.1067466e-38
-0.1565762 0.1428524 0.65500003 1.1251855e-38
-0.15532857 0.1428524 0.65500003 1.1712833e-38
-0.15384573 0.14263429 0.65400004 1.1438041e-38
-0.15236668 0.14241621 0.65300006 1.2544389e-38
-0.15089144 0.14219809 0.65200001 1.3280527e-38
-0.14896096 0.14154382 0.64900005 1.3096136e-38
-0.14749713 0.14132571 0.648 1.328118e-38
-0.16227715 0.14586002 0.66300005 1.1804676e-38
-0.16077144 0.14564002 0.66200006 1.180395e-38
-0.15878762 0.14498 0.65900004 1.0789798e-38
-0.1565762 0.14410001 0.65500003 1.0697982e-38
-0.15532857 0.14410001 0.65500003 1.1896525e-38
-0.15384573 0.14388001 0.65400004 1.1713905e-38
-0.15236668 0.14366001 0.65300006 1.2912448e-38
-0.15089144 0.14343999 0.65200001 1.34642e-38
-0.14896096 0.14278001 0.64900005 1.3279808e-38
-0.14749713 0.14256001 0.648 1.3465218e-38
-0.16354001 0.14712286 0.66300005 1.1897227e-38
-0.16227715 0.14712286 0.66300005 1.1897227e-38
-0.16077144 0.14690097 0.66200006 1.1988341e-38
-0.15926953 0.14667904 0.66100001 1.0881993e-38
-0.15729335 0.14601335 0.65800005 1.0605407e-38
-0.15604001 0.14601335 0.65800005 1.115858e-38
-0.15408096 0.14534763 0.65500003 1.198977e-38
-0.15260001 0.14512572 0.65400004 1.3003922e-38
-0.15112287 0.14490382 0.65300006 1.3004664e-38
-0.14919049 0.1442381 0.65000004 1.3189055e-38
-0.14749713 0.14379428 0.648 1.392549e-38
-0.16301143 0.14905713 0.66600001 1.2173811e-38
-0.16077144 0.1481619 0.66200006 1.2172732e-38
-0.15951048 0.1481619 0.66200006 1.0513211e-38
-0.15753239 0.14749049 0.65900004 9.6863243e-39
-0.15627715 0.14749049 0.65900004 9.7785199e-39
-0.15455143 0.14704286 0.65700001 1.1160375e-38
-0.15283334 0.14659524 0.65500003 1.3280875e-38
-0.1513543 0.14637144 0.65400004 1.3924818e-38
-0.14964953 0.14592381 0.65200001 1.3556035e-38
-0.14772476 0.14525239 0.64900005 1.3005335e-38
-0.16301143 0.15032572 0.66600001 1.2173814e-38
-0.16125715 0.1498743 0.66400003 1.2357842e-38
-0.15975145 0.14964858 0.66300005 1.0698321e-38
-0.15824954 0.14942287 0.66200006 9.5937755e-39
-0.15675142 0.14919715 0.66100001 9.8703624e-39
-0.15478668 0.14852001 0.65800005 1.1067817e-38
-0.1533 0.14829428 0.65700001 1.3003925e-38
-0.1513543 0.14761716 0.65400004 1.3832617e-38
-0.14964953 0.14716572 0.65200001 1.355603e-38
-0.14772476 0.14648859 0.64900005 1.2729496e-38
-0.16301143 0.15159428 0.66600001 1.1989423e-38
-0.16125715 0.15113907 0.66400003 1.2081972e-38
-0.15975145 0.15091144 0.66300005 1.1436602e-38
-0.15824954 0.15068382 0.66200006 1.0239162e-38
-0.15698858 0.15068382 0.66200006 1.0054771e-38
-0.15502191 0.15000096 0.65900004 1.1067464e-38
-0.1533 0.14954571 0.65700001 1.1344051e-38
-0.15158573 0.14909048 0.65500003 1.2726256e-38
-0.14964953 0.14840762 0.65200001 1.4109191e-38
-0.14795238 0.14795238 0.65000004 1.4478349e-38
-0.16301143 0.15286285 0.66600001 1.2081618e-38
-0.16125715 0.15240382 0.66400003 1.1989783e-38
-0.15975145 0.15217429 0.66300005 1.1436609e-38
-0.15824954 0.15194477 0.66200006 1.1161101e-38
-0.15675142 0.15171525 0.66100001 1.0884514e-38
-0.15502191 0.1512562 0.65900004 1.0516095e-38
-0.15353334 0.15102668 0.65800005 1.060829e-38
-0.15158573 0.1503381 0.65500003 1.1159659e-38
-0.14987907 0.14987907 0.65300006 1.3003572e-38
-0.14840762 0.14964953 0.65200001 1.4201742e-38
-0.14671429 0.14919049 0.65000004 1.466272e-38
-0.16301143 0.15413143 0.66600001 1.2173098e-38
-0.16125715 0.15366857 0.66400003 1.2081262e-38
-0.15975145 0.15343715 0.66300005 1.1620284e-38
-0.15824954 0.15320572 0.66200006 1.0976707e-38
-0.15675142 0.15297428 0.66100001 1.1068903e-38
-0.15502191 0.15251143 0.65900004 1.0977076e-38
-0.15353334 0.15228 0.65800005 1.0792684e-38
-0.15158573 0.15158573 0.65500003 1.0424252e-38
-0.14987907 0.15112287 0.65300006 9.502296e-39
-0.14840762 0.15089144 0.65200001 9.0424094e-39
-0.14671429 0.15042858 0.65000004 1.1070713e-38
-0.16125715 0.15493333 0.66400003 1.1896871e-38
-0.15975145 0.15470001 0.66300005 1.1620284e-38
-0.15848857 0.15470001 0.66300005 1.0516451e-38
-0.15698858 0.15446669 0.66200006 1.0700842e-38
-0.15549238 0.15423334 0.66100001 1.1069612e-38
-0.15353334 0.15353334 0.65800005 1.1346199e-38
-0.15204857 0.1533 0.65700001 1.1161478e-38
-0.14987907 0.15236668 0.65300006 9.7785437e-39
-0.14863525 0.15236668 0.65300006 8.675415e-39
-0.14716572 0.15213333 0.65200001 1.0242741e-38
-0.16125715 0.1561981 0.66400003 1.1897943e-38
-0.15975145 0.15596287 0.66300005 1.1621356e-38
-0.15848857 0.15596287 0.66300005 1.1344051e-38
-0.15698858 0.15572762 0.66200006 9.7767249e-39
-0.15572762 0.15572762 0.66200006 9.3182676e-39
-0.15376668 0.15502191 0.65900004 1.116218e-38
-0.15204857 0.15455143 0.65700001 1.2266043e-38
-0.15010858 0.15384573 0.65400004 1.3556782e-38
-0.14886287 0.15384573 0.65400004 1.2913534e-38
-0.14739144 0.15361048 0.65300006 1.15306e-38
-0.14592381 0.15337524 0.65200001 1.0978897e-38
-0.1446819 0.15337524 0.65200001 1.3099397e-38
-0.15975145 0.15722571 0.66300005 1.1621e-38
-0.15848857 0.15722571 0.66300005 1.1528089e-38
-0.15698858 0.15698858 0.66200006 1.0329546e-38
-0.15572762 0.15698858 0.66200006 9.8685548e-39
-0.15423334 0.15675142 0.66100001 1.0974902e-38
-0.15228 0.15604001 0.65800005 1.2265294e-38
-0.1503381 0.15532857 0.65500003 1.3740424e-38
-0.14886287 0.15509143 0.65400004 1.3559635e-38
-0.14739144 0.1548543 0.65300006 1.2453288e-38
-0.14592381 0.15461715 0.65200001 1.2177428e-38
-0.1446819 0.15461715 0.65200001 1.3468167e-38
-0.15975145 0.15848857 0.66300005 1.162064e-38
-0.15848857 0.15848857 0.66300005 1.1528094e-38
-0.15698858 0.15824954 0.66200006 1.1343703e-38
-0.15572762 0.15824954 0.66200006 1.0330639e-38
-0.15423334 0.15801048 0.66100001 9.5930735e-39
-0.15228 0.15729335 0.65800005 9.1342421e-39
-0.1503381 0.1565762 0.65500003 1.0332785e-38
-0.14886287 0.15633714 0.65400004 1.1437349e-38
-0.14739144 0.15609811 0.65300006 1.2359305e-38
-0.14614764 0.15609811 0.65300006 1.2728444e-38
-0.15848857 0.15975145 0.66300005 1.1621003e-38
-0.15722571 0.15975145 0.66300005 1.1160025e-38
-0.15572762 0.15951048 0.66200006 1.1068908e-38
-0.15423334 0.15926953 0.66100001 1.0054756e-38
-0.15251143 0.15878762 0.65900004 9.5019428e-39
-0.15079714 0.15830572 0.65700001 1.0331704e-38
-0.14909048 0.15782382 0.65500003 1.0331353e-38
-0.14739144 0.15734191 0.65300006 1.1437701e-38
-0.14614764 0.15734191 0.65300006 1.208306e-38
-0.14490382 0.15734191 0.65300006 1.3742582e-38
-0.15848857 0.1610143 0.66300005 1.1804676e-38
-0.15722571 0.1610143 0.66300005 1.0882719e-38
-0.15572762 0.16077144 0.66200006 1.0791619e-38
-0.15423334 0.16052857 0.66100001 1.162138e-38
-0.15297428 0.16052857 0.66100001 1.125366e-38
-0.1512562 0.16004287 0.65900004 1.0977073e-38
-0.14954571 0.15955715 0.65700001 1.079198e-38
-0.14761716 0.15882857 0.65400004 1.0976371e-38
-0.14614764 0.15858573 0.65300006 1.0792316e-38
-0.14490382 0.15858573 0.65300006 9.8703596e-39
-0.15920572 0.16301143 0.66600001 1.1989423e-38
-0.15793714 0.16301143 0.66600001 1.1067466e-38
-0.1561981 0.16252191 0.66400003 1.0882373e-38
-0.15446669 0.1620324 0.66200006 1.1343351e-38
-0.15320572 0.1620324 0.66200006 1.1622795e-38
-0.15194477 0.1620324 0.66200006 1.1622795e-38
-0.14954571 0.16080856 0.65700001 1.1622456e-38
-0.14761716 0.16007431 0.65400004 1.1438065e-38
-0.14614764 0.15982954 0.65300006 1.097709e-38
-0.15793714 0.16428 0.66600001 1.1067466e-38
-0.1561981 0.16378668 0.66400003 1.0422481e-38
-0.15493333 0.16378668 0.66400003 1.023809e-38
-0.15320572 0.16329335 0.66200006 1.0609362e-38
-0.15194477 0.16329335 0.66200006 1.171571e-38
-0.15045619 0.16304667 0.66100001 1.2083434e-38
-0.14784285 0.16156667 0.65500003 1.3005391e-38
-0.14637144 0.16132002 0.65400004 1.3005394e-38
-0.15944476 0.16579716 0.66700006 1.2081979e-38
-0.15817429 0.16579716 0.66700006 1.0975631e-38
-0.15666857 0.16554858 0.66600001 1.0697985e-38
-0.15539999 0.16554858 0.66600001 1.0421398e-38
-0.15343715 0.16480286 0.66300005 1.0239858e-38
-0.15217429 0.16480286 0.66300005 1.1530597e-38
-0.15045619 0.1643057 0.66100001 1.1807566e-38
-0.14784285 0.16281429 0.65500003 1.2545132e-38
-0.14637144 0.16256572 0.65400004 1.2730605e-38
-0.14512572 0.16256572 0.65400004 1.2361822e-38
-0.15944476 0.16706763 0.66700006 1.2081262e-38
-0.15817429 0.16706763 0.66700006 1.1251502e-38
-0.15666857 0.16681714 0.66600001 1.0790187e-38
-0.15539999 0.16681714 0.66600001 1.0605796e-38
-0.15366857 0.1663162 0.66400003 1.0331338e-38
-0.15217429 0.16606574 0.66300005 1.0976707e-38
-0.15068382 0.16581525 0.66200006 1.1530603e-38
-0.14829428 0.16456285 0.65700001 1.1622798e-38
-0.14659524 0.16406192 0.65500003 1.2175985e-38
-0.14512572 0.16381145 0.65400004 1.2360376e-38
-0.15944476 0.16833812 0.66700006 1.180612e-38
-0.15817429 0.16833812 0.66700006 1.1068555e-38
-0.15666857 0.16808572 0.66600001 1.1158247e-38
