# .PCD v0.7 - Point Cloud Data file format
VERSION 0.7
FIELDS x y z rgb
SIZE 4 4 4 4
TYPE F F F F
COUNT 1 1 1 1
WIDTH 978
HEIGHT 1
VIEWPOINT 0 0 0 1 0 0 0
POINTS 978
DATA ascii
-0.12256286 0.031825714 0.71100003 1.4848573e-38
-0.12120858 0.031825714 0.71100003 1.4757457e-38
-0.11968572 0.031780954 0.71000004 1.4757457e-38
-0.118 0.031691428 0.708 1.4389393e-38
-0.11665143 0.031691428 0.708 1.4205002e-38
-0.11514 0.031646665 0.70700002 1.4298267e-38
-0.11363238 0.031601906 0.70600003 1.4482658e-38
-0.11228763 0.031601906 0.70600003 1.4758876e-38
-0.11094286 0.031601906 0.70600003 1.4943267e-38
-0.10928763 0.031512383 0.70400006 1.5403523e-38
-0.10779333 0.03146762 0.70300001 1.6141088e-38
-0.10645428 0.03146762 0.70300001 1.6141435e-38
-0.10511524 0.03146762 0.70300001 1.6141435e-38
-0.10377619 0.03146762 0.70300001 1.6234359e-38
-0.10243714 0.03146762 0.70300001 1.6695338e-38
-0.10109809 0.03146762 0.70300001 1.6602782e-38
-0.09975905 0.03146762 0.70300001 1.6510586e-38
-0.098420002 0.03146762 0.70300001 1.6510949e-38
-0.097080946 0.03146762 0.70300001 1.669534e-38
-0.095878102 0.031512383 0.70400006 1.6417684e-38
-0.094537146 0.031512383 0.70400006 1.650988e-38
-0.093196198 0.031512383 0.70400006 1.6416968e-38
-0.092116199 0.031601906 0.70600003 1.6232577e-38
-0.090899996 0.031646665 0.70700002 1.5864873e-38
-0.089553341 0.031646665 0.70700002 1.5680482e-38
-0.088331431 0.031691428 0.708 1.5956353e-38
-0.086982854 0.031691428 0.708 1.6048549e-38
-0.085634284 0.031691428 0.708 1.5863804e-38
-0.084285714 0.031691428 0.708 1.5679413e-38
-0.083171427 0.031780954 0.71000004 1.5679779e-38
-0.08181905 0.031780954 0.71000004 1.5771974e-38
-0.080580004 0.031825714 0.71100003 1.5863455e-38
-0.079225719 0.031825714 0.71100003 1.5863455e-38
-0.078090489 0.03191524 0.71300006 1.595564e-38
-0.077055238 0.032049526 0.71600002 1.6047835e-38
-0.075691432 0.032049526 0.71600002 1.5771246e-38
-0.074431427 0.032094285 0.71700001 1.5402463e-38
-0.073269531 0.032183811 0.71900004 1.5309917e-38
-0.072000004 0.03222857 0.72000003 1.4941135e-38
-0.070628576 0.03222857 0.72000003 1.512516e-38
-0.06925714 0.03222857 0.72000003 1.4940769e-38
-0.068074286 0.032318097 0.72200006 1.4478363e-38
-0.06669905 0.032318097 0.72200006 1.4201776e-38
-0.13546096 0.033693336 0.72200006 1.355278e-38
-0.13371429 0.033600003 0.72000003 1.2820269e-38
-0.13215905 0.033553336 0.71900004 1.3926617e-38
-0.13078953 0.033553336 0.71900004 1.3926271e-38
-0.12942 0.033553336 0.71900004 1.4479445e-38
-0.12769428 0.033459999 0.71700001 1.4204289e-38
-0.12615238 0.033413332 0.71600002 1.4480875e-38
-0.12391715 0.033180002 0.71100003 1.4573435e-38
-0.12256286 0.033180002 0.71100003 1.4665631e-38
-0.12120858 0.033180002 0.71100003 1.4573795e-38
-0.11968572 0.033133335 0.71000004 1.4573795e-38
-0.118 0.033040002 0.708 1.429829e-38
-0.11665143 0.033040002 0.708 1.429829e-38
-0.11514 0.032993335 0.70700002 1.4390835e-38
-0.11363238 0.032946669 0.70600003 1.4667422e-38
-0.11228763 0.032946669 0.70600003 1.5126955e-38
-0.11094286 0.032946669 0.70600003 1.5219151e-38
-0.10928763 0.032853335 0.70400006 1.5219154e-38
-0.10779333 0.032806665 0.70300001 1.5772327e-38
-0.10645428 0.032806665 0.70300001 1.5681198e-38
-0.10511524 0.032806665 0.70300001 1.6049981e-38
-0.10377619 0.032806665 0.70300001 1.5865952e-38
-0.10243714 0.032806665 0.70300001 1.6234735e-38
-0.10109809 0.032806665 0.70300001 1.6050712e-38
-0.09975905 0.032806665 0.70300001 1.6050712e-38
-0.098420002 0.032806665 0.70300001 1.6051065e-38
-0.097080946 0.032806665 0.70300001 1.6051065e-38
-0.095878102 0.032853335 0.70400006 1.5406066e-38
-0.094805717 0.032946669 0.70600003 1.5406066e-38
-0.093460955 0.032946669 0.70600003 1.5588662e-38
-0.092246667 0.032993335 0.70700002 1.5496466e-38
-0.090899996 0.032993335 0.70700002 1.5312431e-38
-0.089553341 0.032993335 0.70700002 1.5312431e-38
-0.088331431 0.033040002 0.708 1.5588655e-38
-0.086982854 0.033040002 0.708 1.5588655e-38
-0.085634284 0.033040002 0.708 1.5679779e-38
-0.084285714 0.033040002 0.708 1.5679779e-38
-0.082937144 0.033040002 0.708 1.577126e-38
-0.08181905 0.033133335 0.71000004 1.5863455e-38
-0.080466673 0.033133335 0.71000004 1.6046763e-38
-0.079114296 0.033133335 0.71000004 1.6138959e-38
-0.078090489 0.033273336 0.71300006 1.5863807e-38
-0.076840006 0.033320002 0.71400005 1.5863807e-38
-0.075691432 0.033413332 0.71600002 1.5771979e-38
-0.074327618 0.033413332 0.71600002 1.5495392e-38
-0.073065713 0.033459999 0.71700001 1.5309917e-38
-0.071900003 0.033553336 0.71900004 1.5217722e-38
-0.070530482 0.033553336 0.71900004 1.4757822e-38
-0.06925714 0.033600003 0.72000003 1.4573431e-38
-0.068074286 0.033693336 0.72200006 1.4110659e-38
-0.06669905 0.033693336 0.72200006 1.3834072e-38
-0.065595239 0.033833336 0.72500002 1.3924802e-38
-0.13645715 0.034971431 0.72000003 1.0236977e-38
-0.1348981 0.034922861 0.71900004 1.3371629e-38
-0.13315715 0.034825716 0.71700001 1.3832967e-38
-0.13179143 0.034825716 0.71700001 1.4570532e-38
-0.13024381 0.034777146 0.71600002 1.4387598e-38
-0.12852001 0.034680001 0.71400005 1.4940772e-38
-0.12698191 0.034631431 0.71300006 1.5033697e-38
-0.12527142 0.034534287 0.71100003 1.5125893e-38
-0.12374286 0.034485716 0.71000004 1.5586501e-38
-0.12204571 0.034388572 0.708 1.5678697e-38
-0.12069714 0.034388572 0.708 1.5494676e-38
-0.11934857 0.034388572 0.708 1.5494676e-38
-0.11783334 0.034339998 0.70700002 1.5403922e-38
-0.11648667 0.034339998 0.70700002 1.5311726e-38
-0.11514 0.034339998 0.70700002 1.5495752e-38
-0.11363238 0.034291428 0.70600003 1.5680143e-38
-0.11228763 0.034291428 0.70600003 1.5679427e-38
-0.11094286 0.034291428 0.70600003 1.5679427e-38
-0.10928763 0.034194287 0.70400006 1.567943e-38
-0.10794667 0.034194287 0.70400006 1.567943e-38
-0.10645428 0.034145713 0.70300001 1.5680143e-38
-0.10511524 0.034145713 0.70300001 1.5864534e-38
-0.10377619 0.034145713 0.70300001 1.5497185e-38
-0.10243714 0.034145713 0.70300001 1.5589381e-38
-0.10109809 0.034145713 0.70300001 1.5681951e-38
-0.09975905 0.034145713 0.70300001 1.5681951e-38
-0.098420002 0.034145713 0.70300001 1.5589752e-38
-0.097080946 0.034145713 0.70300001 1.5589752e-38
-0.095741905 0.034145713 0.70300001 1.5865616e-38
-0.094537146 0.034194287 0.70400006 1.5865616e-38
-0.093196198 0.034194287 0.70400006 1.5957452e-38
-0.092116199 0.034291428 0.70600003 1.5957452e-38
-0.090771429 0.034291428 0.70600003 1.6325148e-38
-0.089426666 0.034291428 0.70600003 1.6417344e-38
-0.088206671 0.034339998 0.70700002 1.64177e-38
-0.086860001 0.034339998 0.70700002 1.64177e-38
-0.085513331 0.034339998 0.70700002 1.6601375e-38
-0.084166668 0.034339998 0.70700002 1.6693571e-38
-0.082819998 0.034339998 0.70700002 1.6692849e-38
-0.081473336 0.034339998 0.70700002 1.6600653e-38
-0.080239996 0.034388572 0.708 1.6601006e-38
-0.078891426 0.034388572 0.708 1.6693202e-38
-0.077871427 0.034534287 0.71100003 1.6508458e-38
-0.076517142 0.034534287 0.71100003 1.6324066e-38
-0.07537429 0.034631431 0.71300006 1.6416632e-38
-0.074016191 0.034631431 0.71300006 1.6047849e-38
-0.072963811 0.034777146 0.71600002 1.5496094e-38
-0.071599998 0.034777146 0.71600002 1.5311702e-38
-0.070334285 0.034825716 0.71700001 1.4942567e-38
-0.068968572 0.034825716 0.71700001 1.4573784e-38
-0.067791432 0.034922861 0.71900004 1.4386893e-38
-0.06669905 0.035068572 0.72200006 1.3649328e-38
-0.065323815 0.035068572 0.72200006 1.383297e-38
-0.064214289 0.035214286 0.72500002 1.2818818e-38
-0.13626763 0.036292382 0.71900004 1.0790514e-38
-0.13452287 0.036191426 0.71700001 1.3371991e-38
-0.13297144 0.036140952 0.71600002 1.3465995e-38
-0.13124 0.036040001 0.71400005 1.4572342e-38
-0.12969811 0.035989527 0.71300006 1.4296484e-38
-0.12834001 0.035989527 0.71300006 1.4941854e-38
-0.12662572 0.035888575 0.71100003 1.4758192e-38
-0.12509525 0.035838097 0.71000004 1.5126975e-38
-0.12322 0.035686668 0.70700002 1.5494676e-38
-0.12187333 0.035686668 0.70700002 1.5586871e-38
-0.12052666 0.035686668 0.70700002 1.5495039e-38
-0.11918 0.035686668 0.70700002 1.567943e-38
-0.11783334 0.035686668 0.70700002 1.5772341e-38
-0.11648667 0.035686668 0.70700002 1.5864537e-38
-0.11514 0.035686668 0.70700002 1.5956014e-38
-0.11363238 0.035636194 0.70600003 1.5956014e-38
-0.11228763 0.035636194 0.70600003 1.5680149e-38
-0.11094286 0.035636194 0.70600003 1.5680149e-38
-0.10928763 0.035535242 0.70400006 1.577342e-38
-0.10794667 0.035535242 0.70400006 1.5681225e-38
-0.10645428 0.035484761 0.70300001 1.5589385e-38
-0.10511524 0.035484761 0.70300001 1.549719e-38
-0.10377619 0.035484761 0.70300001 1.5221689e-38
-0.10243714 0.035484761 0.70300001 1.540608e-38
-0.10109809 0.035484761 0.70300001 1.5774499e-38
-0.09975905 0.035484761 0.70300001 1.5682304e-38
-0.098420002 0.035484761 0.70300001 1.5405361e-38
-0.097080946 0.035484761 0.70300001 1.5589752e-38
-0.095741905 0.035484761 0.70300001 1.5774499e-38
-0.094402857 0.035484761 0.70300001 1.5682304e-38
-0.093063809 0.035484761 0.70300001 1.577342e-38
-0.091855243 0.035535242 0.70400006 1.5957812e-38
-0.090514295 0.035535242 0.70400006 1.614184e-38
-0.089426666 0.035636194 0.70600003 1.6326231e-38
-0.088081911 0.035636194 0.70600003 1.6417708e-38
-0.086737148 0.035636194 0.70600003 1.6325512e-38
-0.085392386 0.035636194 0.70600003 1.6417708e-38
-0.084047616 0.035636194 0.70600003 1.6417708e-38
-0.08270286 0.035636194 0.70600003 1.6509544e-38
-0.081473336 0.035686668 0.70700002 1.6417348e-38
-0.080126666 0.035686668 0.70700002 1.6601375e-38
-0.078780003 0.035686668 0.70700002 1.6509179e-38
-0.077761903 0.035838097 0.71000004 1.6325148e-38
-0.076517142 0.035888575 0.71100003 1.6325148e-38
-0.07537429 0.035989527 0.71300006 1.5864903e-38
-0.074016191 0.035989527 0.71300006 1.5680512e-38
-0.072760001 0.036040001 0.71400005 1.5312784e-38
-0.071599998 0.036140952 0.71600002 1.5220589e-38
-0.070236191 0.036140952 0.71600002 1.4851097e-38
-0.068968572 0.036191426 0.71700001 1.4666706e-38
-0.067602858 0.036191426 0.71700001 1.4388325e-38
-0.066514291 0.036342856 0.72000003 1.3558565e-38
-0.065142855 0.036342856 0.72000003 1.4201392e-38
-0.064037152 0.036494289 0.72300005 1.2910653e-38
-0.13763715 0.037661906 0.71900004 1.1799596e-38
-0.13588856 0.037557144 0.71700001 1.1159659e-38
-0.13433523 0.037504762 0.71600002 1.3372354e-38
-0.13260001 0.037400004 0.71400005 1.3465639e-38
-0.1310562 0.037347622 0.71300006 1.4756378e-38
-0.1293343 0.037242856 0.71100003 1.4573071e-38
-0.12797999 0.037242856 0.71100003 1.5402832e-38
-0.12644762 0.037190478 0.71000004 1.5495387e-38
-0.12474285 0.037085712 0.708 1.5679779e-38
-0.12322 0.037033334 0.70700002 1.5955287e-38
-0.12170096 0.036980953 0.70600003 1.6231873e-38
-0.12035619 0.036980953 0.70600003 1.6231522e-38
-0.11901143 0.036980953 0.70600003 1.6508109e-38
-0.11766667 0.036980953 0.70600003 1.6508458e-38
-0.11632191 0.036980953 0.70600003 1.6600653e-38
-0.11497714 0.036980953 0.70600003 1.660102e-38
-0.11331049 0.03687619 0.70400006 1.660102e-38
-0.11196953 0.03687619 0.70400006 1.6601375e-38
-0.11062858 0.03687619 0.70400006 1.6785766e-38
-0.10928763 0.03687619 0.70400006 1.6693935e-38
-0.10779333 0.036823809 0.70300001 1.678613e-38
-0.10645428 0.036823809 0.70300001 1.6786479e-38
-0.10511524 0.036823809 0.70300001 1.6878675e-38
-0.10377619 0.036823809 0.70300001 1.6970522e-38
-0.10243714 0.036823809 0.70300001 1.6970522e-38
-0.10081048 0.036719047 0.70100003 1.6878675e-38
-0.099475242 0.036719047 0.70100003 1.7063066e-38
-0.098140001 0.036719047 0.70100003 1.6970518e-38
-0.096804768 0.036719047 0.70100003 1.6970518e-38
-0.095741905 0.036823809 0.70300001 1.7154909e-38
-0.094402857 0.036823809 0.70300001 1.7247104e-38
-0.093063809 0.036823809 0.70300001 1.7430417e-38
-0.091724768 0.036823809 0.70300001 1.7522612e-38
-0.090514295 0.03687619 0.70400006 1.7246741e-38
-0.089173339 0.03687619 0.70400006 1.7338937e-38
-0.087832384 0.03687619 0.70400006 1.7430417e-38
-0.086491436 0.03687619 0.70400006 1.715383e-38
-0.085392386 0.036980953 0.70600003 1.6878326e-38
-0.083809532 0.03687619 0.70400006 1.6878326e-38
-0.082468584 0.03687619 0.70400006 1.678613e-38
-0.081358097 0.036980953 0.70600003 1.6878326e-38
-0.080013335 0.036980953 0.70600003 1.6785766e-38
-0.078780003 0.037033334 0.70700002 1.6785766e-38
-0.077761903 0.037190478 0.71000004 1.6693568e-38
-0.076409526 0.037190478 0.71000004 1.6509176e-38
-0.075162858 0.037242856 0.71100003 1.6325152e-38
-0.074016191 0.037347622 0.71300006 1.5864174e-38
-0.072658099 0.037347622 0.71300006 1.5772678e-38
-0.071400002 0.037400004 0.71400005 1.5403895e-38
-0.070236191 0.037504762 0.71600002 1.5127324e-38
-0.068872385 0.037504762 0.71600002 1.4942933e-38
-0.067602858 0.037557144 0.71700001 1.4388677e-38
-0.066421911 0.037661906 0.71900004 1.3558916e-38
-0.065142855 0.037714288 0.72000003 1.3925165e-38
-0.064037152 0.037871432 0.72300005 1.2542231e-38
-0.13861999 0.038922857 0.71700001 9.5883329e-39
-0.13725428 0.038922857 0.71700001 1.1524441e-38
-0.13569905 0.038868573 0.71600002 1.1436246e-38
-0.13396001 0.038760003 0.71400005 1.3648941e-38
-0.1324143 0.038705718 0.71300006 1.3557834e-38
-0.13068858 0.038597144 0.71100003 1.4756378e-38
-0.12915239 0.038542859 0.71000004 1.4573435e-38
-0.1278 0.038542859 0.71000004 1.5311e-38
-0.12609142 0.038434286 0.708 1.5219887e-38
-0.12474285 0.038434286 0.708 1.5588669e-38
-0.12322 0.038380001 0.70700002 1.5771979e-38
-0.12170096 0.038325716 0.70600003 1.6048565e-38
-0.12035619 0.038325716 0.70600003 1.6323717e-38
-0.11901143 0.038325716 0.70600003 1.6600304e-38
-0.11766667 0.038325716 0.70600003 1.6600656e-38
-0.11632191 0.038325716 0.70600003 1.6600656e-38
-0.11465143 0.038217146 0.70400006 1.6692852e-38
-0.11331049 0.038217146 0.70400006 1.6692852e-38
-0.11196953 0.038217146 0.70400006 1.6785051e-38
-0.11062858 0.038217146 0.70400006 1.6969443e-38
-0.10913239 0.038162857 0.70300001 1.6693935e-38
-0.10779333 0.038162857 0.70300001 1.6693935e-38
-0.10615143 0.038054287 0.70100003 1.6786126e-38
-0.1048162 0.038054287 0.70100003 1.6970518e-38
-0.10348096 0.038054287 0.70100003 1.7154546e-38
-0.10214572 0.038054287 0.70100003 1.706235e-38
-0.10081048 0.038054287 0.70100003 1.7062353e-38
-0.099475242 0.038054287 0.70100003 1.7154549e-38
-0.098140001 0.038054287 0.70100003 1.7154549e-38
-0.096804768 0.038054287 0.70100003 1.733894e-38
-0.095469527 0.038054287 0.70100003 1.7614805e-38
-0.094134286 0.038054287 0.70100003 1.752261e-38
-0.092799053 0.038054287 0.70100003 1.7522612e-38
-0.091463812 0.038054287 0.70100003 1.7522612e-38
-0.090385713 0.038162857 0.70300001 1.7430417e-38
-0.089046665 0.038162857 0.70300001 1.7430417e-38
-0.087707624 0.038162857 0.70300001 1.7246393e-38
-0.086368576 0.038162857 0.70300001 1.7154197e-38
-0.08502952 0.038162857 0.70300001 1.7062361e-38
-0.083809532 0.038217146 0.70400006 1.6970166e-38
-0.082468584 0.038217146 0.70400006 1.678613e-38
-0.081127621 0.038217146 0.70400006 1.6878326e-38
-0.079786673 0.038217146 0.70400006 1.6877962e-38
-0.078668572 0.038325716 0.70600003 1.6877962e-38
-0.077542856 0.038434286 0.708 1.6601739e-38
-0.076409526 0.038542859 0.71000004 1.6693935e-38
-0.075057149 0.038542859 0.71000004 1.6325152e-38
-0.073808573 0.038597144 0.71100003 1.5864174e-38
-0.072658099 0.038705718 0.71300006 1.5864526e-38
-0.071400002 0.038760003 0.71400005 1.5495743e-38
-0.070236191 0.038868573 0.71600002 1.4851453e-38
-0.068872385 0.038868573 0.71600002 1.4574866e-38
-0.067602858 0.038922857 0.71700001 1.4388325e-38
-0.066421911 0.039031431 0.71900004 1.3558565e-38
-0.065142855 0.039085716 0.72000003 1.4109196e-38
-0.064037152 0.039248575 0.72300005 1.2726262e-38
-0.13861999 0.040288571 0.71700001 9.3121117e-39
-0.13706286 0.040232379 0.71600002 1.1617002e-38
-0.13532001 0.040120002 0.71400005 1.1805385e-38
-0.13377239 0.040063813 0.71300006 1.3925884e-38
-0.1324143 0.040063813 0.71300006 1.3834424e-38
-0.13068858 0.039951429 0.71100003 1.4848576e-38
-0.12915239 0.03989524 0.71000004 1.4665631e-38
-0.1278 0.03989524 0.71000004 1.5403196e-38
-0.12609142 0.039782856 0.708 1.5312082e-38
-0.12474285 0.039782856 0.708 1.5680865e-38
-0.12322 0.039726667 0.70700002 1.6416615e-38
-0.12170096 0.039670479 0.70600003 1.6601006e-38
-0.12035619 0.039670479 0.70600003 1.6876877e-38
-0.11867429 0.039558098 0.70400006 1.6969073e-38
-0.11733335 0.039558098 0.70400006 1.6877243e-38
-0.11599239 0.039558098 0.70400006 1.7338221e-38
-0.11465143 0.039558098 0.70400006 1.7154546e-38
-0.11314952 0.039501905 0.70300001 1.7154546e-38
-0.11181048 0.039501905 0.70300001 1.7430065e-38
-0.11047143 0.039501905 0.70300001 1.7798847e-38
-0.10913239 0.039501905 0.70300001 1.7707008e-38
-0.10779333 0.039501905 0.70300001 1.7614812e-38
-0.10615143 0.039389525 0.70100003 1.7707001e-38
-0.1048162 0.039389525 0.70100003 1.7707001e-38
-0.10348096 0.039389525 0.70100003 1.7799189e-38
-0.10214572 0.039389525 0.70100003 1.8075776e-38
-0.10081048 0.039389525 0.70100003 1.8167267e-38
-0.099333346 0.039333336 0.70000005 1.7982876e-38
-0.098000005 0.039333336 0.70000005 1.8167619e-38
-0.096666671 0.039333336 0.70000005 1.8444206e-38
-0.095333338 0.039333336 0.70000005 1.8075783e-38
-0.094000004 0.039333336 0.70000005 1.7983588e-38
-0.092799053 0.039389525 0.70100003 1.7892114e-38
-0.091463812 0.039389525 0.70100003 1.7892114e-38
-0.090128571 0.039389525 0.70100003 1.7983955e-38
-0.089046665 0.039501905 0.70300001 1.7891759e-38
-0.087707624 0.039501905 0.70300001 1.7615891e-38
-0.086368576 0.039501905 0.70300001 1.7523696e-38
-0.08502952 0.039501905 0.70300001 1.7338948e-38
-0.083690472 0.039501905 0.70300001 1.7338948e-38
-0.082351431 0.039501905 0.70300001 1.7338585e-38
-0.081012383 0.039501905 0.70300001 1.7338585e-38
-0.079786673 0.039558098 0.70400006 1.7338937e-38
-0.078445718 0.039558098 0.70400006 1.6970155e-38
-0.077433333 0.039726667 0.70700002 1.6693579e-38
-0.076194286 0.039782856 0.708 1.6693579e-38
-0.075057149 0.03989524 0.71000004 1.6325148e-38
-0.073808573 0.039951429 0.71100003 1.586417e-38
-0.072658099 0.040063813 0.71300006 1.5864174e-38
-0.071400002 0.040120002 0.71400005 1.5587587e-38
-0.070236191 0.040232379 0.71600002 1.5035116e-38
-0.068872385 0.040232379 0.71600002 1.4481942e-38
-0.067602858 0.040288571 0.71700001 1.4388328e-38
-0.066237144 0.040288571 0.71700001 1.3466372e-38
-0.065052383 0.040400952 0.71900004 1.3833333e-38
-0.063771427 0.040457144 0.72000003 1.2450398e-38
-0.062660009 0.040625714 0.72300005 1.2357111e-38
-0.13998571 0.041654285 0.71700001 9.8620583e-39
-0.13804002 0.041480005 0.71400005 9.0362507e-39
-0.13668001 0.041480005 0.71400005 1.1433337e-38
-0.13513048 0.041421909 0.71300006 1.1989773e-38
-0.13377239 0.041421909 0.71300006 1.3833686e-38
-0.13204286 0.041305717 0.71100003 1.4111364e-38
-0.13050477 0.041247621 0.71000004 1.5033321e-38
-0.12878856 0.041131429 0.708 1.4849658e-38
-0.12743999 0.041131429 0.708 1.5495027e-38
-0.12609142 0.041131429 0.708 1.5495039e-38
-0.12456667 0.041073337 0.70700002 1.6324799e-38
-0.12304571 0.041015241 0.70600003 1.6325504e-38
-0.1213562 0.040899049 0.70400006 1.6602091e-38
-0.12001524 0.040899049 0.70400006 1.6601739e-38
-0.11850572 0.04084095 0.70300001 1.6693935e-38
-0.11716667 0.04084095 0.70300001 1.6785766e-38
-0.11582762 0.04084095 0.70300001 1.7154549e-38
-0.11448857 0.04084095 0.70300001 1.7062353e-38
-0.11314952 0.04084095 0.70300001 1.7246744e-38
-0.11181048 0.04084095 0.70300001 1.7338588e-38
-0.11047143 0.04084095 0.70300001 1.7522979e-38
-0.10913239 0.04084095 0.70300001 1.7614812e-38
-0.10779333 0.04084095 0.70300001 1.7799203e-38
-0.10615143 0.040724762 0.70100003 1.7799199e-38
-0.1048162 0.040724762 0.70100003 1.7799199e-38
-0.10348096 0.040724762 0.70100003 1.7983228e-38
-0.10200001 0.04066667 0.70000005 1.8075423e-38
-0.10066667 0.04066667 0.70000005 1.8075423e-38
-0.099333346 0.04066667 0.70000005 1.8259814e-38
-0.098000005 0.04066667 0.70000005 1.8351654e-38
-0.096666671 0.04066667 0.70000005 1.8351654e-38
-0.095333338 0.04066667 0.70000005 1.7892478e-38
-0.094000004 0.04066667 0.70000005 1.7800282e-38
-0.092666671 0.04066667 0.70000005 1.7892122e-38
-0.091333345 0.04066667 0.70000005 1.7892122e-38
-0.090000004 0.04066667 0.70000005 1.7799926e-38
-0.088793337 0.040724762 0.70100003 1.7799926e-38
-0.087458096 0.040724762 0.70100003 1.7524061e-38
-0.086122856 0.040724762 0.70100003 1.7524061e-38
-0.084787622 0.040724762 0.70100003 1.697125e-38
-0.083690472 0.04084095 0.70300001 1.7155642e-38
-0.082351431 0.04084095 0.70300001 1.7338948e-38
-0.081012383 0.04084095 0.70300001 1.7338948e-38
-0.079673328 0.04084095 0.70300001 1.7247104e-38
-0.078445718 0.040899049 0.70400006 1.6970518e-38
-0.077433333 0.041073337 0.70700002 1.6602099e-38
-0.076194286 0.041131429 0.708 1.6602099e-38
-0.074845709 0.041131429 0.708 1.6325152e-38
-0.073704764 0.041247621 0.71000004 1.5864174e-38
-0.072454289 0.041305717 0.71100003 1.5771979e-38
-0.071400002 0.041480005 0.71400005 1.5495392e-38
-0.07004001 0.041480005 0.71400005 1.5219504e-38
-0.068872385 0.041596193 0.71600002 1.4481939e-38
-0.067602858 0.041654285 0.71700001 1.4480524e-38
-0.066237144 0.041654285 0.71700001 1.3558567e-38
-0.065052383 0.041770477 0.71900004 1.3924812e-38
-0.063682862 0.041770477 0.71900004 1.2541878e-38
-0.062660009 0.04200286 0.72300005 1.2264187e-38
-0.061282866 0.04200286 0.72300005 1.4200295e-38
-0.059095241 0.042409524 0.73000002 1.5674699e-38
-0.13979048 0.042960003 0.71600002 9.9546099e-39
-0.13804002 0.04284 0.71400005 9.1273674e-39
-0.13648859 0.042780001 0.71300006 1.1524454e-38
-0.13513048 0.042780001 0.71300006 1.1805379e-38
-0.13339715 0.042660002 0.71100003 1.3833683e-38
-0.13185716 0.042600002 0.71000004 1.4202481e-38
-0.13013715 0.042479999 0.708 1.5585415e-38
-0.12878856 0.042479999 0.708 1.5217719e-38
-0.12743999 0.042479999 0.708 1.5678697e-38
-0.12591334 0.04242 0.70700002 1.5587234e-38
-0.12456667 0.04242 0.70700002 1.6324799e-38
-0.12269716 0.042240005 0.70400006 1.6324785e-38
-0.1213562 0.042240005 0.70400006 1.6601372e-38
-0.11984476 0.042180002 0.70300001 1.6785047e-38
-0.11850572 0.042180002 0.70300001 1.7246025e-38
-0.11716667 0.042180002 0.70300001 1.7154546e-38
-0.11582762 0.042180002 0.70300001 1.7338937e-38
-0.11416285 0.042060003 0.70100003 1.7430414e-38
-0.11282763 0.042060003 0.70100003 1.752261e-38
-0.11149239 0.042060003 0.70100003 1.7523331e-38
-0.11015715 0.042060003 0.70100003 1.7984309e-38
-0.10882191 0.042060003 0.70100003 1.7983588e-38
-0.10748667 0.042060003 0.70100003 1.835237e-38
-0.10615143 0.042060003 0.70100003 1.8260177e-38
-0.1048162 0.042060003 0.70100003 1.862896e-38
-0.10333334 0.042000003 0.70000005 1.8812985e-38
-0.10200001 0.042000003 0.70000005 1.872079e-38
-0.10066667 0.042000003 0.70000005 1.8721146e-38
-0.099333346 0.042000003 0.70000005 1.9089928e-38
-0.098000005 0.042000003 0.70000005 1.8997028e-38
-0.096666671 0.042000003 0.70000005 1.8812636e-38
-0.095333338 0.042000003 0.70000005 1.8813355e-38
-0.094000004 0.042000003 0.70000005 1.8905551e-38
-0.092666671 0.042000003 0.70000005 1.8905544e-38
-0.091333345 0.042000003 0.70000005 1.8444566e-38
-0.090000004 0.042000003 0.70000005 1.8076513e-38
-0.088793337 0.042060003 0.70100003 1.7799926e-38
-0.087458096 0.042060003 0.70100003 1.7707736e-38
-0.086122856 0.042060003 0.70100003 1.7615541e-38
-0.084787622 0.042060003 0.70100003 1.7524058e-38
-0.083452389 0.042060003 0.70100003 1.7431863e-38
-0.082351431 0.042180002 0.70300001 1.74315e-38
-0.081012383 0.042180002 0.70300001 1.7247109e-38
-0.079673328 0.042180002 0.70300001 1.7154909e-38
-0.078334287 0.042180002 0.70300001 1.7062713e-38
-0.077323809 0.04236 0.70600003 1.6786126e-38
-0.076086663 0.04242 0.70700002 1.6693931e-38
-0.074845709 0.042479999 0.708 1.6602091e-38
-0.073704764 0.042600002 0.71000004 1.5956722e-38
-0.072454289 0.042660002 0.71100003 1.5588302e-38
-0.071300007 0.042780001 0.71300006 1.5127324e-38
-0.07004001 0.04284 0.71400005 1.5035469e-38
-0.068872385 0.042960003 0.71600002 1.4390099e-38
-0.067602858 0.043020003 0.71700001 1.4387972e-38
-0.066237144 0.043020003 0.71700001 1.3834798e-38
-0.065052383 0.043140002 0.71900004 1.3648588e-38
-0.063682862 0.043140002 0.71900004 1.2265654e-38
-0.062573336 0.043320004 0.72200006 1.2357111e-38
-0.061198097 0.043320004 0.72200006 1.3740045e-38
-0.060568571 0.04386 0.73100001 1.5397749e-38
-0.059095241 0.0438 0.73000002 1.5766532e-38
-0.057704762 0.0438 0.73000002 1.5673623e-38
-0.056314286 0.0438 0.73000002 1.5581427e-38
-0.13979048 0.044323809 0.71600002 1.041379e-38
-0.13804002 0.044200003 0.71400005 9.0344529e-39
-0.13648859 0.0441381 0.71300006 1.1431539e-38
-0.13475142 0.044014286 0.71100003 1.1621341e-38
-0.13339715 0.044014286 0.71100003 1.374184e-38
-0.13185716 0.043952383 0.71000004 1.4110285e-38
-0.13013715 0.043828573 0.708 1.5401024e-38
-0.12878856 0.043828573 0.708 1.5309914e-38
-0.12743999 0.043828573 0.708 1.5586501e-38
-0.12591334 0.043766666 0.70700002 1.5495039e-38
-0.12439048 0.043704763 0.70600003 1.6140408e-38
-0.12269716 0.043580953 0.70400006 1.623259e-38
-0.12118381 0.043519046 0.70300001 1.6693568e-38
-0.11984476 0.043519046 0.70300001 1.6693571e-38
-0.11850572 0.043519046 0.70300001 1.7154549e-38
-0.11716667 0.043519046 0.70300001 1.7154546e-38
-0.1154981 0.04339524 0.70100003 1.7431133e-38
-0.11416285 0.04339524 0.70100003 1.752261e-38
-0.11282763 0.04339524 0.70100003 1.7614805e-38
-0.11149239 0.04339524 0.70100003 1.7522977e-38
-0.11015715 0.04339524 0.70100003 1.7891759e-38
-0.10882191 0.04339524 0.70100003 1.7708087e-38
-0.10748667 0.04339524 0.70100003 1.7892478e-38
-0.10600001 0.043333337 0.70000005 1.7892122e-38
-0.10466667 0.043333337 0.70000005 1.8445296e-38
-0.10333334 0.043333337 0.70000005 1.8629676e-38
-0.10170857 0.043209527 0.69800001 1.8629676e-38
-0.10037905 0.043209527 0.69800001 1.8721153e-38
-0.099049523 0.043209527 0.69800001 1.8813348e-38
-0.097720005 0.043209527 0.69800001 1.872116e-38
-0.096390471 0.043209527 0.69800001 1.8813355e-38
-0.095060952 0.043209527 0.69800001 1.8905547e-38
-0.093731426 0.043209527 0.69800001 1.8997742e-38
-0.092401907 0.043209527 0.69800001 1.8905551e-38
-0.091072381 0.043209527 0.69800001 1.872116e-38
-0.090000004 0.043333337 0.70000005 1.8261623e-38
-0.08866667 0.043333337 0.70000005 1.8169428e-38
-0.087458096 0.04339524 0.70100003 1.7892841e-38
-0.086122856 0.04339524 0.70100003 1.7892841e-38
-0.084787622 0.04339524 0.70100003 1.7524061e-38
-0.083452389 0.04339524 0.70100003 1.7524061e-38
-0.082351431 0.043519046 0.70300001 1.7247474e-38
-0.081012383 0.043519046 0.70300001 1.7247474e-38
-0.079673328 0.043519046 0.70300001 1.7154909e-38
-0.078334287 0.043519046 0.70300001 1.6970518e-38
-0.077323809 0.043704763 0.70600003 1.6970157e-38
-0.076086663 0.043766666 0.70700002 1.6785766e-38
-0.074845709 0.043828573 0.708 1.6602088e-38
-0.073704764 0.043952383 0.71000004 1.5956719e-38
-0.072454289 0.044014286 0.71100003 1.577233e-38
-0.071300007 0.0441381 0.71300006 1.5219157e-38
-0.07004001 0.044200003 0.71400005 1.5127674e-38
-0.068872385 0.044323809 0.71600002 1.4482305e-38
-0.067508571 0.044323809 0.71600002 1.4112457e-38
-0.066237144 0.044385713 0.71700001 1.3282697e-38
-0.065052383 0.044509526 0.71900004 1.3648228e-38
-0.063771427 0.044571429 0.72000003 1.2449685e-38
-0.062573336 0.044695243 0.72200006 1.2632616e-38
-0.061706673 0.04506667 0.72800004 1.3831159e-38
-0.060320001 0.04506667 0.72800004 1.4844578e-38
-0.058933336 0.04506667 0.72800004 1.5766535e-38
-0.057467621 0.045004766 0.72700006 1.5949854e-38
-0.05608286 0.045004766 0.72700006 1.5765463e-38
-0.053313337 0.045004766 0.72700006 1.558179e-38
-0.13979048 0.04568762 0.71600002 1.0137203e-38
-0.13784668 0.045496192 0.71300006 8.9429789e-39
-0.13648859 0.045496192 0.71300006 1.1432261e-38
-0.13475142 0.045368571 0.71100003 1.1437303e-38
-0.13320953 0.045304764 0.71000004 1.3649998e-38
-0.13185716 0.045304764 0.71000004 1.4018443e-38
-0.13013715 0.045177143 0.708 1.5216986e-38
-0.12860666 0.045113333 0.70700002 1.5034049e-38
-0.12726 0.045113333 0.70700002 1.5495027e-38
-0.12591334 0.045113333 0.70700002 1.567943e-38
-0.12439048 0.045049526 0.70600003 1.6324799e-38
-0.12252286 0.044858098 0.70300001 1.6416265e-38
-0.12118381 0.044858098 0.70300001 1.6785047e-38
-0.11984476 0.044858098 0.70300001 1.6969436e-38
-0.11816857 0.044730477 0.70100003 1.7338218e-38
-0.11683334 0.044730477 0.70100003 1.7154549e-38
-0.1154981 0.044730477 0.70100003 1.7523331e-38
-0.11416285 0.044730477 0.70100003 1.7614805e-38
-0.11282763 0.044730477 0.70100003 1.7707001e-38
-0.11133334 0.044666667 0.70000005 1.752334e-38
-0.11000001 0.044666667 0.70000005 1.7984318e-38
-0.10866667 0.044666667 0.70000005 1.8168698e-38
-0.10733334 0.044666667 0.70000005 1.8353089e-38
-0.10600001 0.044666667 0.70000005 1.8445287e-38
-0.10466667 0.044666667 0.70000005 1.8998461e-38
-0.10303809 0.044539049 0.69800001 1.9090291e-38
-0.10170857 0.044539049 0.69800001 1.9274682e-38
-0.10037905 0.044539049 0.69800001 1.9366875e-38
-0.099049523 0.044539049 0.69800001 1.9366875e-38
-0.097720005 0.044539049 0.69800001 1.927468e-38
-0.096252382 0.044475239 0.69700003 1.9643462e-38
-0.094924763 0.044475239 0.69700003 1.9643102e-38
-0.093597144 0.044475239 0.69700003 1.9550906e-38
-0.092269525 0.044475239 0.69700003 1.9089935e-38
-0.091072381 0.044539049 0.69800001 1.899774e-38
-0.089742862 0.044539049 0.69800001 1.872259e-38
-0.08866667 0.044666667 0.70000005 1.8353808e-38
-0.087333336 0.044666667 0.70000005 1.8353452e-38
-0.086000003 0.044666667 0.70000005 1.8261256e-38
-0.084666677 0.044666667 0.70000005 1.7615901e-38
-0.083452389 0.044730477 0.70100003 1.7615901e-38
-0.082117148 0.044730477 0.70100003 1.7338951e-38
-0.081012383 0.044858098 0.70300001 1.7338951e-38
-0.079673328 0.044858098 0.70300001 1.7062713e-38
-0.078334287 0.044858098 0.70300001 1.6970518e-38
-0.077323809 0.045049526 0.70600003 1.6970518e-38
-0.076086663 0.045113333 0.70700002 1.6509539e-38
-0.074740008 0.045113333 0.70700002 1.6325854e-38
-0.073704764 0.045304764 0.71000004 1.5957072e-38
-0.072454289 0.045368571 0.71100003 1.5496106e-38
-0.071300007 0.045496192 0.71300006 1.5035128e-38
-0.07004001 0.045560002 0.71400005 1.5219151e-38
-0.068680003 0.045560002 0.71400005 1.4665977e-38
-0.067508571 0.04568762 0.71600002 1.4112087e-38
-0.066237144 0.04575143 0.71700001 1.3097935e-38
-0.065052383 0.045879051 0.71900004 1.3556748e-38
-0.063948572 0.046070479 0.72200006 1.2358205e-38
-0.062833332 0.046261907 0.72500002 1.2633347e-38
-0.061706673 0.046453338 0.72800004 1.3647499e-38
-0.060320001 0.046453338 0.72800004 1.4569061e-38
-0.058852386 0.046389528 0.72700006 1.5767604e-38
-0.057467621 0.046389528 0.72700006 1.5950575e-38
-0.05608286 0.046389528 0.72700006 1.5766184e-38
-0.13979048 0.04705143 0.71600002 9.6787461e-39
-0.13784668 0.046854287 0.71300006 8.6667423e-39
-0.13648859 0.046854287 0.71300006 1.0695046e-38
-0.13475142 0.046722859 0.71100003 1.1344028e-38
-0.13320953 0.046657145 0.71000004 1.383331e-38
-0.13148572 0.046525717 0.708 1.401844e-38
-0.13013715 0.046525717 0.708 1.5124787e-38
-0.12860666 0.046459999 0.70700002 1.4757822e-38
-0.12726 0.046459999 0.70700002 1.5310996e-38
-0.12591334 0.046459999 0.70700002 1.5587587e-38
-0.12439048 0.046394285 0.70600003 1.6325152e-38
-0.12252286 0.046197142 0.70300001 1.650846e-38
-0.12118381 0.046197142 0.70300001 1.6877243e-38
-0.11984476 0.046197142 0.70300001 1.724566e-38
-0.11816857 0.046065718 0.70100003 1.724566e-38
-0.11683334 0.046065718 0.70100003 1.7062353e-38
-0.1154981 0.046065718 0.70100003 1.7431136e-38
-0.114 0.046000004 0.70000005 1.7614805e-38
-0.11266667 0.046000004 0.70000005 1.7891392e-38
-0.11133334 0.046000004 0.70000005 1.7707722e-38
-0.11000001 0.046000004 0.70000005 1.8168701e-38
-0.10835619 0.045868572 0.69800001 1.8169061e-38
-0.10702667 0.045868572 0.69800001 1.8353452e-38
-0.10569715 0.045868572 0.69800001 1.8445648e-38
-0.10436761 0.045868572 0.69800001 1.881443e-38
-0.10303809 0.045868572 0.69800001 1.8814786e-38
-0.10156287 0.045802858 0.69700003 1.9091373e-38
-0.10023524 0.045802858 0.69700003 1.9275043e-38
-0.09890762 0.045802858 0.69700003 1.9275043e-38
-0.097580008 0.045802858 0.69700003 1.9275043e-38
-0.096252382 0.045802858 0.69700003 1.9275043e-38
-0.094924763 0.045802858 0.69700003 1.9459074e-38
-0.093597144 0.045802858 0.69700003 1.9459074e-38
-0.092269525 0.045802858 0.69700003 1.9089935e-38
-0.090941906 0.045802858 0.69700003 1.899774e-38
-0.089614287 0.045802858 0.69700003 1.8814786e-38
-0.088413335 0.045868572 0.69800001 1.8630395e-38
-0.087083809 0.045868572 0.69800001 1.8077948e-38
-0.085754283 0.045868572 0.69800001 1.7985753e-38
-0.084666677 0.046000004 0.70000005 1.7524061e-38
-0.083452389 0.046065718 0.70100003 1.7431866e-38
-0.082117148 0.046065718 0.70100003 1.7338948e-38
-0.080781907 0.046065718 0.70100003 1.7154557e-38
-0.079673328 0.046197142 0.70300001 1.7062713e-38
-0.078334287 0.046197142 0.70300001 1.6878322e-38
-0.077323809 0.046394285 0.70600003 1.7062353e-38
-0.075979047 0.046394285 0.70600003 1.6324788e-38
-0.074740008 0.046459999 0.70700002 1.6048914e-38
-0.073704764 0.046657145 0.71000004 1.5864523e-38
-0.072454289 0.046722859 0.71100003 1.5035855e-38
-0.071300007 0.046854287 0.71300006 1.4482682e-38
-0.07004001 0.046920002 0.71400005 1.4389756e-38
-0.068680003 0.046920002 0.71400005 1.4389756e-38
-0.067508571 0.04705143 0.71600002 1.3836938e-38
-0.066237144 0.04711714 0.71700001 1.3007177e-38
-0.065142855 0.047314286 0.72000003 1.3740426e-38
-0.064037152 0.047511432 0.72300005 1.2541883e-38
-0.063006669 0.047774293 0.72700006 1.2449309e-38
-0.061621908 0.047774293 0.72700006 1.2818092e-38
-0.060237147 0.047774293 0.72700006 1.4476149e-38
-0.058852386 0.047774293 0.72700006 1.5859083e-38
-0.057309527 0.047642857 0.72500002 1.5766184e-38
-0.055928573 0.047642857 0.72500002 1.5489597e-38
-0.054547619 0.047642857 0.72500002 1.5489592e-38
-0.13998571 0.048482858 0.71700001 1.0415232e-38
-0.13804002 0.048280004 0.71400005 9.3124649e-39
-0.13648859 0.048212387 0.71300006 1.0142226e-38
-0.13513048 0.048212387 0.71300006 1.0144784e-38
-0.13320953 0.048009526 0.71000004 1.3279436e-38
-0.13148572 0.047874287 0.708 1.3740771e-38
-0.13013715 0.047874287 0.708 1.4939314e-38
-0.12860666 0.047806669 0.70700002 1.4756025e-38
-0.12726 0.047806669 0.70700002 1.5585785e-38
-0.12573524 0.047739051 0.70600003 1.5771248e-38
-0.12439048 0.047739051 0.70600003 1.6416618e-38
-0.12252286 0.047536191 0.70300001 1.6416265e-38
-0.12118381 0.047536191 0.70300001 1.6969439e-38
-0.11950381 0.047400955 0.70100003 1.715382e-38
-0.11816857 0.047400955 0.70100003 1.715382e-38
-0.11683334 0.047400955 0.70100003 1.7153827e-38
-0.11533334 0.047333337 0.70000005 1.752261e-38
-0.114 0.047333337 0.70000005 1.7614805e-38
-0.11266667 0.047333337 0.70000005 1.835237e-38
-0.11133334 0.047333337 0.70000005 1.8260165e-38
-0.11000001 0.047333337 0.70000005 1.8444556e-38
-0.10835619 0.047198098 0.69800001 1.8352726e-38
-0.10702667 0.047198098 0.69800001 1.8721509e-38
-0.10554572 0.04713048 0.69700003 1.8813701e-38
-0.1042181 0.04713048 0.69700003 1.8998093e-38
-0.10289048 0.04713048 0.69700003 1.9182484e-38
-0.10156287 0.04713048 0.69700003 1.9366875e-38
-0.10023524 0.04713048 0.69700003 1.9550906e-38
-0.09890762 0.04713048 0.69700003 1.9643102e-38
-0.097580008 0.04713048 0.69700003 1.9366875e-38
-0.096252382 0.04713048 0.69700003 1.9366875e-38
-0.094924763 0.04713048 0.69700003 1.9366875e-38
-0.093597144 0.04713048 0.69700003 1.927468e-38
-0.092269525 0.04713048 0.69700003 1.9182131e-38
-0.090941906 0.04713048 0.69700003 1.8905544e-38
-0.089614287 0.04713048 0.69700003 1.8814783e-38
-0.088413335 0.047198098 0.69800001 1.8722588e-38
-0.087083809 0.047198098 0.69800001 1.816978e-38
-0.085754283 0.047198098 0.69800001 1.8077584e-38
-0.084666677 0.047333337 0.70000005 1.7708087e-38
-0.083333343 0.047333337 0.70000005 1.7523696e-38
-0.082117148 0.047400955 0.70100003 1.7338948e-38
-0.080781907 0.047400955 0.70100003 1.7154557e-38
-0.079673328 0.047536191 0.70300001 1.7062713e-38
-0.078334287 0.047536191 0.70300001 1.6693931e-38
-0.077323809 0.047739051 0.70600003 1.6785761e-38
-0.075979047 0.047739051 0.70600003 1.6232587e-38
-0.074845709 0.047874287 0.708 1.5957084e-38
-0.073704764 0.048009526 0.71000004 1.5588302e-38
-0.072454289 0.048077144 0.71100003 1.5219168e-38
-0.071300007 0.048212387 0.71300006 1.4573798e-38
-0.07004001 0.048280004 0.71400005 1.4389393e-38
-0.068680003 0.048280004 0.71400005 1.3928415e-38
-0.067508571 0.04841524 0.71600002 1.4111724e-38
-0.066237144 0.048482858 0.71700001 1.3558551e-38
-0.065323815 0.048820958 0.72200006 1.3924465e-38
-0.064037152 0.048888575 0.72300005 1.2725921e-38
-0.063006669 0.04915905 0.72700006 1.2449307e-38
-0.061621908 0.04915905 0.72700006 1.2541502e-38
-0.060237147 0.04915905 0.72700006 1.3463086e-38
-0.058852386 0.04915905 0.72700006 1.549139e-38
-0.057309527 0.049023811 0.72500002 1.5582509e-38
-0.055928573 0.049023811 0.72500002 1.5305922e-38
-0.054547619 0.049023811 0.72500002 1.5305922e-38
-0.13998571 0.049848571 0.71700001 1.0416311e-38
-0.13804002 0.04964 0.71400005 9.9578217e-39
-0.13648859 0.049570478 0.71300006 1.0050017e-38
-0.13513048 0.049570478 0.71300006 1.0328794e-38
-0.13320953 0.049361907 0.71000004 1.3094663e-38
-0.13148572 0.049222857 0.708 1.3280512e-38
-0.13013715 0.049222857 0.708 1.4479055e-38
-0.12860666 0.049153332 0.70700002 1.4571986e-38
-0.12726 0.049153332 0.70700002 1.5493943e-38
-0.12573524 0.04908381 0.70600003 1.5770886e-38
-0.12386191 0.048875239 0.70300001 1.6231864e-38
-0.12252286 0.048875239 0.70300001 1.6231873e-38
-0.12083905 0.048736192 0.70100003 1.6692852e-38
-0.11950381 0.048736192 0.70100003 1.6601369e-38
-0.11816857 0.048736192 0.70100003 1.6970152e-38
-0.11666667 0.048666667 0.70000005 1.7154183e-38
-0.11533334 0.048666667 0.70000005 1.743077e-38
-0.11367428 0.048527621 0.69800001 1.7706638e-38
-0.11234476 0.048527621 0.69800001 1.7983225e-38
-0.11101524 0.048527621 0.69800001 1.7983225e-38
-0.10968572 0.048527621 0.69800001 1.8536399e-38
-0.10820096 0.048458096 0.69700003 1.8536754e-38
-0.10687333 0.048458096 0.69700003 1.8813341e-38
-0.10554572 0.048458096 0.69700003 1.8813704e-38
-0.1042181 0.048458096 0.69700003 1.9182487e-38
-0.10289048 0.048458096 0.69700003 1.9366515e-38
-0.10156287 0.048458096 0.69700003 1.9182124e-38
-0.10023524 0.048458096 0.69700003 1.9089572e-38
-0.09890762 0.048458096 0.69700003 1.9273964e-38
-0.097580008 0.048458096 0.69700003 1.9273964e-38
-0.096252382 0.048458096 0.69700003 1.9273964e-38
-0.094924763 0.048458096 0.69700003 1.9182847e-38
-0.093597144 0.048458096 0.69700003 1.8998456e-38
-0.092269525 0.048458096 0.69700003 1.8538208e-38
-0.090941906 0.048458096 0.69700003 1.8538208e-38
-0.089742862 0.048527621 0.69800001 1.8721872e-38
-0.088413335 0.048527621 0.69800001 1.8721872e-38
-0.087083809 0.048527621 0.69800001 1.7893553e-38
-0.085754283 0.048527621 0.69800001 1.7985748e-38
-0.084666677 0.048666667 0.70000005 1.7892478e-38
-0.083333343 0.048666667 0.70000005 1.74315e-38
-0.082117148 0.048736192 0.70100003 1.7339304e-38
-0.080781907 0.048736192 0.70100003 1.7154913e-38
-0.079673328 0.048875239 0.70300001 1.7062713e-38
-0.078334287 0.048875239 0.70300001 1.6601735e-38
-0.077323809 0.04908381 0.70600003 1.6601375e-38
-0.075979047 0.04908381 0.70600003 1.6140397e-38
-0.074740008 0.049153332 0.70700002 1.6048565e-38
-0.073704764 0.049361907 0.71000004 1.5679783e-38
-0.072454289 0.049431432 0.71100003 1.5127324e-38
-0.071300007 0.049570478 0.71300006 1.457415e-38
-0.07004001 0.04964 0.71400005 1.4757457e-38
-0.068680003 0.04964 0.71400005 1.4204283e-38
-0.067508571 0.04977905 0.71600002 1.4295755e-38
-0.066237144 0.049848571 0.71700001 1.3373799e-38
-0.065323815 0.050196193 0.72200006 1.3832254e-38
-0.064214289 0.050404765 0.72500002 1.1896145e-38
-0.063006669 0.050543811 0.72700006 1.1896085e-38
-0.061621908 0.050543811 0.72700006 1.2172672e-38
-0.060320001 0.050613336 0.72800004 1.3830777e-38
-0.058933336 0.050613336 0.72800004 1.5766885e-38
-0.057546668 0.050613336 0.72800004 1.5398838e-38
-0.056160003 0.050613336 0.72800004 1.5122251e-38
-0.13998571 0.051214285 0.71700001 9.3088846e-39
-0.13804002 0.051000003 0.71400005 9.0333739e-39
-0.13648859 0.050928578 0.71300006 1.0324113e-38
-0.13513048 0.050928578 0.71300006 1.0051854e-38
-0.13320953 0.050714288 0.71000004 1.2633332e-38
-0.13148572 0.050571427 0.708 1.2819534e-38
-0.13013715 0.050571427 0.708 1.4386859e-38
-0.12860666 0.050500002 0.70700002 1.4386875e-38
-0.12726 0.050500002 0.70700002 1.512444e-38
-0.12573524 0.050428573 0.70600003 1.5586489e-38
-0.12386191 0.050214287 0.70300001 1.5955271e-38
-0.12217429 0.050071429 0.70100003 1.6047482e-38
-0.12083905 0.050071429 0.70100003 1.650846e-38
-0.11950381 0.050071429 0.70100003 1.6601009e-38
-0.11800001 0.050000004 0.70000005 1.7061987e-38
-0.11666667 0.050000004 0.70000005 1.715382e-38
-0.11533334 0.050000004 0.70000005 1.7338211e-38
-0.11367428 0.049857143 0.69800001 1.7430051e-38
-0.11234476 0.049857143 0.69800001 1.7891029e-38
-0.11101524 0.049857143 0.69800001 1.7891029e-38
-0.10968572 0.049857143 0.69800001 1.8352007e-38
-0.10820096 0.049785715 0.69700003 1.8444556e-38
-0.10687333 0.049785715 0.69700003 1.8536752e-38
-0.10554572 0.049785715 0.69700003 1.8905534e-38
-0.1042181 0.049785715 0.69700003 1.8905534e-38
-0.10289048 0.049785715 0.69700003 1.8905534e-38
-0.10156287 0.049785715 0.69700003 1.8905534e-38
-0.10023524 0.049785715 0.69700003 1.8905181e-38
-0.09890762 0.049785715 0.69700003 1.8997377e-38
-0.097580008 0.049785715 0.69700003 1.8905547e-38
-0.096252382 0.049785715 0.69700003 1.8813351e-38
-0.094924763 0.049785715 0.69700003 1.8169061e-38
-0.093597144 0.049785715 0.69700003 1.7892474e-38
-0.092269525 0.049785715 0.69700003 1.8077221e-38
-0.090941906 0.049785715 0.69700003 1.8261612e-38
-0.089742862 0.049857143 0.69800001 1.8169061e-38
-0.088413335 0.049857143 0.69800001 1.8076865e-38
-0.087083809 0.049857143 0.69800001 1.7985025e-38
-0.085754283 0.049857143 0.69800001 1.7708439e-38
-0.084666677 0.050000004 0.70000005 1.7432212e-38
-0.083452389 0.050071429 0.70100003 1.7155625e-38
-0.082117148 0.050071429 0.70100003 1.724746e-38
-0.080781907 0.050071429 0.70100003 1.6970873e-38
-0.079673328 0.050214287 0.70300001 1.6786126e-38
-0.078334287 0.050214287 0.70300001 1.6325148e-38
-0.077323809 0.050428573 0.70600003 1.6416629e-38
-0.075979047 0.050428573 0.70600003 1.5955651e-38
-0.074740008 0.050500002 0.70700002 1.595637e-38
-0.073704764 0.050714288 0.71000004 1.5495392e-38
-0.072454289 0.050785713 0.71100003 1.485109e-38
-0.071300007 0.050928578 0.71300006 1.4482308e-38
-0.07004001 0.051000003 0.71400005 1.5034046e-38
-0.068680003 0.051000003 0.71400005 1.4665264e-38
-0.067508571 0.051142856 0.71600002 1.4756361e-38
-0.066144764 0.051142856 0.71600002 1.3281231e-38
-0.065323815 0.051571433 0.72200006 1.2820603e-38
-0.064214289 0.051785715 0.72500002 9.9625384e-39
-0.063006669 0.051928576 0.72700006 9.5033077e-39
-0.061706673 0.052000001 0.72800004 1.1531612e-38
-0.060320001 0.052000001 0.72800004 1.3738591e-38
-0.058933336 0.052000001 0.72800004 1.585909e-38
-0.057546668 0.052000001 0.72800004 1.5673983e-38
-0.13998571 0.052579999 0.71700001 9.7684208e-39
-0.13804002 0.052360002 0.71400005 9.2177483e-39
-0.13668001 0.052360002 0.71400005 9.8631177e-39
-0.13513048 0.05228667 0.71300006 9.8674533e-39
-0.13339715 0.052140001 0.71100003 1.2356735e-38
-0.13185716 0.052066669 0.71000004 1.2359274e-38
-0.13013715 0.051919997 0.708 1.4110991e-38
-0.12860666 0.051846668 0.70700002 1.4111359e-38
-0.12726 0.051846668 0.70700002 1.5033315e-38
-0.12573524 0.051773336 0.70600003 1.5125876e-38
-0.12386191 0.051553335 0.70300001 1.567905e-38
-0.12217429 0.051406667 0.70100003 1.5679779e-38
-0.12083905 0.051406667 0.70100003 1.6140757e-38
-0.11950381 0.051406667 0.70100003 1.6232943e-38
-0.11800001 0.051333338 0.70000005 1.6693921e-38
-0.11666667 0.051333338 0.70000005 1.6877949e-38
-0.11533334 0.051333338 0.70000005 1.7154536e-38
-0.11367428 0.05118667 0.69800001 1.7154543e-38
-0.11234476 0.05118667 0.69800001 1.7523326e-38
-0.11101524 0.05118667 0.69800001 1.7615161e-38
-0.10952857 0.051113334 0.69700003 1.7891748e-38
-0.10820096 0.051113334 0.69700003 1.779955e-38
-0.10687333 0.051113334 0.69700003 1.8076136e-38
-0.10554572 0.051113334 0.69700003 1.8260528e-38
-0.1042181 0.051113334 0.69700003 1.8537115e-38
-0.10289048 0.051113334 0.69700003 1.8537117e-38
-0.10156287 0.051113334 0.69700003 1.8721509e-38
-0.10023524 0.051113334 0.69700003 1.8813704e-38
-0.09890762 0.051113334 0.69700003 1.89059e-38
-0.097580008 0.051113334 0.69700003 1.899774e-38
-0.096252382 0.051113334 0.69700003 1.8721153e-38
-0.094924763 0.051113334 0.69700003 1.8168698e-38
-0.093597144 0.051113334 0.69700003 1.8260893e-38
-0.092269525 0.051113334 0.69700003 1.8352726e-38
-0.090941906 0.051113334 0.69700003 1.8168335e-38
-0.089742862 0.05118667 0.69800001 1.8076502e-38
-0.088413335 0.05118667 0.69800001 1.7892111e-38
-0.087083809 0.05118667 0.69800001 1.7799915e-38
-0.085754283 0.05118667 0.69800001 1.770772e-38
-0.084424764 0.05118667 0.69800001 1.7063792e-38
-0.083452389 0.051406667 0.70100003 1.6879401e-38
-0.082117148 0.051406667 0.70100003 1.6971236e-38
-0.081012383 0.051553335 0.70300001 1.6786845e-38
-0.079673328 0.051553335 0.70300001 1.6417711e-38
-0.078334287 0.051553335 0.70300001 1.623332e-38
-0.077323809 0.051773336 0.70600003 1.6416265e-38
-0.075979047 0.051773336 0.70600003 1.5955287e-38
-0.074845709 0.051919997 0.708 1.5679427e-38
-0.073704764 0.052066669 0.71000004 1.540284e-38
-0.072454289 0.052140001 0.71100003 1.4758901e-38
-0.071300007 0.05228667 0.71300006 1.4297923e-38
-0.07004001 0.052360002 0.71400005 1.5125513e-38
-0.068680003 0.052360002 0.71400005 1.4295753e-38
-0.067508571 0.052506667 0.71600002 1.3834036e-38
-0.066144764 0.052506667 0.71600002 1.3096471e-38
-0.065595239 0.053166665 0.72500002 1.1900449e-38
-0.064391434 0.053313337 0.72700006 8.857993e-39
-0.063093334 0.05338667 0.72800004 7.7519243e-39
-0.061706673 0.05338667 0.72800004 1.1439749e-38
-0.060320001 0.05338667 0.72800004 1.3646398e-38
-0.058933336 0.05338667 0.72800004 1.5582506e-38
-0.057546668 0.05338667 0.72800004 1.558179e-38
-0.13804002 0.053720001 0.71400005 1.0047879e-38
-0.13668001 0.053720001 0.71400005 9.5869008e-39
-0.13513048 0.053644765 0.71300006 9.4053864e-39
-0.13339715 0.053494286 0.71100003 1.2540038e-38
-0.13204286 0.053494286 0.71100003 1.2910648e-38
-0.13050477 0.05341905 0.71000004 1.39248e-38
-0.12878856 0.05326857 0.708 1.4294661e-38
-0.12743999 0.05326857 0.708 1.494003e-38
-0.12591334 0.053193334 0.70700002 1.4941125e-38
-0.12386191 0.052892383 0.70300001 1.5402103e-38
-0.12252286 0.052892383 0.70300001 1.5586504e-38
-0.12083905 0.052741908 0.70100003 1.6047482e-38
-0.11950381 0.052741908 0.70100003 1.6232577e-38
-0.11800001 0.052666668 0.70000005 1.6509164e-38
-0.11666667 0.052666668 0.70000005 1.6877227e-38
-0.11533334 0.052666668 0.70000005 1.7061619e-38
-0.11367428 0.052516192 0.69800001 1.7338562e-38
-0.11234476 0.052516192 0.69800001 1.7430757e-38
-0.11101524 0.052516192 0.69800001 1.7523319e-38
-0.10952857 0.052440956 0.69700003 1.7799905e-38
-0.10820096 0.052440956 0.69700003 1.7892101e-38
-0.10687333 0.052440956 0.69700003 1.7892101e-38
-0.10554572 0.052440956 0.69700003 1.8167966e-38
-0.1042181 0.052440956 0.69700003 1.8260162e-38
-0.10289048 0.052440956 0.69700003 1.8259812e-38
-0.10156287 0.052440956 0.69700003 1.8259812e-38
-0.10023524 0.052440956 0.69700003 1.8167982e-38
-0.09890762 0.052440956 0.69700003 1.8352373e-38
-0.097580008 0.052440956 0.69700003 1.8168698e-38
-0.096252382 0.052440956 0.69700003 1.8076502e-38
-0.094924763 0.052440956 0.69700003 1.8352007e-38
-0.093597144 0.052440956 0.69700003 1.8536399e-38
-0.092269525 0.052440956 0.69700003 1.8259812e-38
-0.090941906 0.052440956 0.69700003 1.7891029e-38
-0.089742862 0.052516192 0.69800001 1.7799564e-38
-0.088413335 0.052516192 0.69800001 1.7707368e-38
-0.087083809 0.052516192 0.69800001 1.7524044e-38
-0.085754283 0.052516192 0.69800001 1.7339653e-38
-0.084424764 0.052516192 0.69800001 1.733929e-38
-0.083452389 0.052741908 0.70100003 1.7154899e-38
-0.082117148 0.052741908 0.70100003 1.6970873e-38
-0.081012383 0.052892383 0.70300001 1.6694287e-38
