# .PCD v0.7 - Point Cloud Data file format
VERSION 0.7
FIELDS x y z rgb
SIZE 4 4 4 4
TYPE F F F F
COUNT 1 1 1 1
WIDTH 1002
HEIGHT 1
VIEWPOINT 0 0 0 1 0 0 0
POINTS 1002
DATA ascii
-0.060039051 0.16423905 0.52100003 2.0839452e-38
-0.058933336 0.16392381 0.52000004 1.6609652e-38
-0.05794286 0.16392381 0.52000004 1.5687696e-38
-0.05684286 0.16360858 0.51900005 1.7159941e-38
-0.055854291 0.16360858 0.51900005 2.0662985e-38
-0.054865718 0.16360858 0.51900005 2.3142182e-38
-0.053877149 0.16360858 0.51900005 2.3234378e-38
-0.052888576 0.16360858 0.51900005 2.341769e-38
-0.051799998 0.16329333 0.51800001 2.341769e-38
-0.050813332 0.16329333 0.51800001 2.2680488e-38
-0.049826667 0.16329333 0.51800001 1.5950207e-38
-0.048840001 0.16329333 0.51800001 1.5308059e-38
-0.047760952 0.1629781 0.51700002 1.6690994e-38
-0.04677619 0.1629781 0.51700002 2.0743641e-38
-0.045791429 0.1629781 0.51700002 2.350987e-38
-0.044806667 0.1629781 0.51700002 2.341769e-38
-0.044076193 0.16392381 0.52000004 2.341769e-38
-0.043168575 0.16423905 0.52100003 2.341769e-38
-0.042176194 0.16423905 0.52100003 2.341769e-38
-0.041183814 0.16423905 0.52100003 2.2867037e-38
-0.040191431 0.16423905 0.52100003 2.1852885e-38
-0.039274286 0.16455428 0.52200001 1.7349352e-38
-0.038279999 0.16455428 0.52200001 1.486007e-38
-0.03735714 0.16486953 0.523 1.8171947e-38
-0.036430478 0.16518478 0.52400005 2.1397669e-38
-0.035500001 0.1655 0.52500004 2.3326213e-38
-0.034500003 0.1655 0.52500004 2.3326213e-38
-0.033500001 0.1655 0.52500004 2.2038721e-38
-0.032500003 0.1655 0.52500004 1.8996265e-38
-0.03156 0.16581523 0.52600002 1.6518878e-38
-0.030558096 0.16581523 0.52600002 1.6703269e-38
-0.029556191 0.16581523 0.52600002 1.6796546e-38
-0.028608572 0.16613047 0.52700001 1.6335568e-38
-0.027657142 0.16644572 0.528 1.5968591e-38
-0.026752383 0.1670762 0.53000003 1.5784199e-38
-0.025839999 0.16770665 0.53200001 1.5415425e-38
-0.024873335 0.16802192 0.53300005 1.4401273e-38
-0.023858096 0.16802192 0.53300005 1.8263016e-38
-0.022885716 0.16833715 0.53400004 2.1948682e-38
-0.021909524 0.16865239 0.53500003 2.2774842e-38
-0.020929523 0.16896762 0.53600001 1.7704082e-38
-0.019945715 0.16928285 0.537 7.1301191e-39
-0.018993333 0.16991334 0.53900003 5.1940108e-39
-0.018000001 0.17022857 0.54000002 7.8668686e-39
-0.082953334 0.17157428 0.54100001 1.5123323e-38
-0.081771426 0.17125715 0.54000002 1.411421e-38
-0.080443822 0.17062287 0.53800005 1.4575188e-38
-0.078976192 0.16967145 0.53500003 1.3565365e-38
-0.077957146 0.16967145 0.53500003 1.3012191e-38
-0.076794289 0.16935429 0.53400004 1.4943974e-38
-0.075777151 0.16935429 0.53400004 1.9553755e-38
-0.074480005 0.16872001 0.53200001 1.8631098e-38
-0.073328577 0.16840287 0.53100002 1.1347643e-38
-0.072044767 0.16776858 0.52900004 6.3002743e-39
-0.071037143 0.16776858 0.52900004 8.1441869e-39
-0.069632389 0.16681714 0.52600002 9.429165e-39
-0.068500005 0.16650002 0.52500004 9.429165e-39
-0.06750001 0.16650002 0.52500004 9.0621776e-39
-0.066500001 0.16650002 0.52500004 7.95583e-39
-0.065375239 0.16618288 0.52400005 9.5198781e-39
-0.064377151 0.16618288 0.52400005 1.2838921e-38
-0.063258089 0.1658657 0.523 1.908807e-38
-0.062261906 0.1658657 0.523 2.2314917e-38
-0.061148573 0.16554858 0.52200001 2.3326213e-38
-0.060154289 0.16554858 0.52200001 2.2312061e-38
-0.058933336 0.1649143 0.52000004 1.9921822e-38
-0.05794286 0.1649143 0.52000004 1.82623e-38
-0.056952383 0.1649143 0.52000004 1.9460127e-38
-0.055961911 0.1649143 0.52000004 2.2132353e-38
-0.055077143 0.16523144 0.52100003 2.341769e-38
-0.054084763 0.16523144 0.52100003 2.341769e-38
-0.053092383 0.16523144 0.52100003 2.341769e-38
-0.052000005 0.1649143 0.52000004 2.3048907e-38
-0.051009528 0.1649143 0.52000004 1.9088827e-38
-0.050019052 0.1649143 0.52000004 1.5032219e-38
-0.049028575 0.1649143 0.52000004 1.4386834e-38
-0.047945719 0.16459715 0.51900005 1.4847812e-38
-0.046957146 0.16459715 0.51900005 1.8160359e-38
-0.045880001 0.16428 0.51800001 2.2216966e-38
-0.044893332 0.16428 0.51800001 2.3417687e-38
-0.044160955 0.16523144 0.52100003 2.3417687e-38
-0.043168575 0.16523144 0.52100003 2.341769e-38
-0.042176194 0.16523144 0.52100003 2.341769e-38
-0.041183814 0.16523144 0.52100003 2.341769e-38
-0.040268574 0.16554858 0.52200001 2.3325494e-38
-0.039349526 0.1658657 0.523 2.065974e-38
-0.038353331 0.1658657 0.523 1.9922175e-38
-0.037428573 0.16618288 0.52400005 2.2683365e-38
-0.036430478 0.16618288 0.52400005 2.2867037e-38
-0.035500001 0.16650002 0.52500004 2.3326213e-38
-0.034500003 0.16650002 0.52500004 2.1574496e-38
-0.033500001 0.16650002 0.52500004 1.8726528e-38
-0.032500003 0.16650002 0.52500004 1.7251398e-38
-0.03156 0.16681714 0.52600002 1.6059704e-38
-0.030558096 0.16681714 0.52600002 1.6520683e-38
-0.029612381 0.16713428 0.52700001 1.7072054e-38
-0.028662857 0.16745143 0.528 1.651888e-38
-0.027709527 0.16776858 0.52900004 1.6335215e-38
-0.026802858 0.16840287 0.53100002 1.6243019e-38
-0.025888573 0.16903715 0.53300005 1.5416133e-38
-0.024873335 0.16903715 0.53300005 1.4678568e-38
-0.023902858 0.16935429 0.53400004 1.8446701e-38
-0.022885716 0.16935429 0.53400004 2.1948682e-38
-0.021991428 0.17030571 0.537 2.2774842e-38
-0.021007622 0.17062287 0.53800005 1.9179212e-38
-0.020020001 0.17094001 0.53900003 1.5135241e-38
-0.019028572 0.17125715 0.54000002 1.0894242e-38
-0.018000001 0.17125715 0.54000002 9.520276e-39
-0.082953334 0.17260475 0.54100001 1.5122604e-38
-0.081771426 0.17228572 0.54000002 1.4020936e-38
-0.080443822 0.17164762 0.53800005 1.4850696e-38
-0.078976192 0.17069048 0.53500003 1.41171e-38
-0.077957146 0.17069048 0.53500003 1.347173e-38
-0.076794289 0.17037144 0.53400004 1.4851801e-38
-0.075777151 0.17037144 0.53400004 1.9461582e-38
-0.074620001 0.17005239 0.53300005 1.9183541e-38
-0.073466666 0.16973333 0.53200001 1.2822042e-38
-0.072317146 0.1694143 0.53100002 6.3006457e-39
-0.071037143 0.1687762 0.52900004 7.4991889e-39
-0.069764763 0.16813809 0.52700001 9.0611084e-39
-0.068500005 0.16750002 0.52500004 9.3376952e-39
-0.06750001 0.16750002 0.52500004 9.4302412e-39
-0.066500001 0.16750002 0.52500004 9.2458499e-39
-0.065375239 0.16718097 0.52400005 9.8894145e-39
-0.064377151 0.16718097 0.52400005 8.9674582e-39
-0.063258089 0.16686191 0.523 1.44876e-38
-0.062261906 0.16686191 0.523 1.7714447e-38
-0.061265714 0.16686191 0.523 2.120644e-38
-0.060154289 0.16654286 0.52200001 2.3142544e-38
-0.058933336 0.16590478 0.52000004 2.3050705e-38
-0.05794286 0.16590478 0.52000004 2.2774118e-38
-0.057061907 0.16622381 0.52100003 2.3142182e-38
-0.056069527 0.16622381 0.52100003 2.3234378e-38
-0.055077143 0.16622381 0.52100003 2.341769e-38
-0.054084763 0.16622381 0.52100003 2.2034756e-38
-0.053092383 0.16622381 0.52100003 1.844024e-38
-0.052100003 0.16622381 0.52100003 1.5213393e-38
-0.051107619 0.16622381 0.52100003 1.4479396e-38
-0.050115239 0.16622381 0.52100003 1.5124765e-38
-0.049122859 0.16622381 0.52100003 1.5584314e-38
-0.048130479 0.16622381 0.52100003 1.5492118e-38
-0.047138099 0.16622381 0.52100003 1.5674349e-38
-0.046145715 0.16622381 0.52100003 1.5950936e-38
-0.045153335 0.16622381 0.52100003 1.8254003e-38
-0.044245712 0.16654286 0.52200001 2.1665242e-38
-0.043251429 0.16654286 0.52200001 2.3416971e-38
-0.042257145 0.16654286 0.52200001 2.3509167e-38
-0.041341905 0.16686191 0.523 2.341769e-38
-0.040345713 0.16686191 0.523 2.341769e-38
-0.039349526 0.16686191 0.523 2.3326213e-38
-0.038353331 0.16686191 0.523 2.3141822e-38
-0.037428573 0.16718097 0.52400005 2.3326213e-38
-0.036499999 0.16750002 0.52500004 2.3326213e-38
-0.035500001 0.16750002 0.52500004 2.2774842e-38
-0.034500003 0.16750002 0.52500004 1.9179212e-38
-0.033500001 0.16750002 0.52500004 1.670255e-38
-0.032561906 0.16781905 0.52600002 1.670255e-38
-0.03156 0.16781905 0.52600002 1.642849e-38
-0.030558096 0.16781905 0.52600002 1.6520685e-38
-0.029612381 0.16813809 0.52700001 1.6703995e-38
-0.028662857 0.16845715 0.528 1.6335212e-38
-0.027709527 0.1687762 0.52900004 1.6151903e-38
-0.026802858 0.1694143 0.53100002 1.6059707e-38
-0.025888573 0.17005239 0.53300005 1.5966067e-38
-0.024920002 0.17037144 0.53400004 1.6334849e-38
-0.023992382 0.17100953 0.53600001 1.9459074e-38
-0.022971429 0.17100953 0.53600001 2.2132353e-38
-0.022073334 0.17196669 0.53900003 2.3234378e-38
-0.021046666 0.17196669 0.53900003 2.2957791e-38
-0.020057144 0.17228572 0.54000002 2.1486992e-38
-0.019028572 0.17228572 0.54000002 1.9458688e-38
-0.018033333 0.17260475 0.54100001 1.8264799e-38
-0.01716 0.1742 0.546 1.7527234e-38
-0.01612 0.1742 0.546 1.7250329e-38
-0.078976192 0.17170954 0.53500003 1.4116381e-38
-0.077957146 0.17170954 0.53500003 1.4485163e-38
-0.076794289 0.17138858 0.53400004 1.614288e-38
-0.075777151 0.17138858 0.53400004 1.9461923e-38
-0.074760005 0.17138858 0.53400004 1.9459774e-38
-0.073466666 0.17074665 0.53200001 1.4204623e-38
-0.072453335 0.17074665 0.53200001 9.1507901e-39
-0.071171433 0.17010477 0.53000003 8.6898119e-39
-0.069897138 0.16946286 0.528 8.6019253e-39
-0.068630479 0.16882096 0.52600002 9.0629034e-39
-0.06750001 0.16850002 0.52500004 9.3380484e-39
-0.066500001 0.16850002 0.52500004 9.430244e-39
-0.065499999 0.16850002 0.52500004 8.7866767e-39
-0.064377151 0.16817906 0.52400005 7.7725247e-39
-0.063379049 0.16817906 0.52400005 9.7964551e-39
-0.062380958 0.16817906 0.52400005 1.2377933e-38
-0.06138286 0.16817906 0.52400005 1.8995877e-38
-0.060269523 0.16785809 0.523 2.2958854e-38
-0.059159998 0.16753714 0.52200001 2.3326213e-38
-0.058165714 0.16753714 0.52200001 2.3326213e-38
-0.057061907 0.1672162 0.52100003 2.3326213e-38
-0.056069527 0.1672162 0.52100003 2.3326213e-38
-0.055182859 0.16753714 0.52200001 2.3326213e-38
-0.054084763 0.1672162 0.52100003 1.9730584e-38
-0.053092383 0.1672162 0.52100003 1.6874331e-38
-0.052100003 0.1672162 0.52100003 1.4753832e-38
-0.051107619 0.1672162 0.52100003 1.475455e-38
-0.050115239 0.1672162 0.52100003 1.5676507e-38
-0.049122859 0.1672162 0.52100003 1.5953094e-38
-0.048130479 0.1672162 0.52100003 1.5860898e-38
-0.047138099 0.1672162 0.52100003 1.5400999e-38
-0.046234287 0.16753714 0.52200001 1.4663434e-38
-0.045240004 0.16753714 0.52200001 1.5859431e-38
-0.044330478 0.16785809 0.523 1.7795539e-38
-0.043334283 0.16785809 0.523 2.092624e-38
-0.042338096 0.16785809 0.523 2.3415522e-38
-0.041341905 0.16785809 0.523 2.341769e-38
-0.040345713 0.16785809 0.523 2.341769e-38
-0.039349526 0.16785809 0.523 2.341769e-38
-0.038426671 0.16817906 0.52400005 2.341769e-38
-0.037428573 0.16817906 0.52400005 2.341769e-38
-0.036499999 0.16850002 0.52500004 2.2587929e-38
-0.035500001 0.16850002 0.52500004 2.0106216e-38
-0.034500003 0.16850002 0.52500004 1.7893521e-38
-0.033563811 0.16882096 0.52600002 1.6244098e-38
-0.032561906 0.16882096 0.52600002 1.6520685e-38
-0.03162 0.1691419 0.52700001 1.6703998e-38
-0.03061619 0.1691419 0.52700001 1.6703998e-38
-0.029668571 0.16946286 0.528 1.6612518e-38
-0.028717143 0.16978382 0.52900004 1.6335931e-38
-0.027709527 0.16978382 0.52900004 1.6519604e-38
-0.026853334 0.17074665 0.53200001 1.6058625e-38
-0.025937144 0.17138858 0.53400004 1.5965704e-38
-0.024966668 0.17170954 0.53500003 1.7625225e-38
-0.024037143 0.17235142 0.537 2.1484118e-38
-0.023057146 0.17267239 0.53800005 2.2867037e-38
-0.022073334 0.17299333 0.53900003 2.3141819e-38
-0.021085715 0.17331429 0.54000002 2.332621e-38
-0.020057144 0.17331429 0.54000002 2.3234378e-38
-0.01906381 0.17363524 0.54100001 2.2220226e-38
-0.018133335 0.1745981 0.54400003 1.9551973e-38
-0.01716 0.17524 0.546 1.8630016e-38
-0.01612 0.17524 0.546 1.7802054e-38
-0.078976192 0.17272857 0.53500003 1.5310958e-38
-0.077957146 0.17272857 0.53500003 1.8261219e-38
-0.076794289 0.17240573 0.53400004 1.9456515e-38
-0.075777151 0.17240573 0.53400004 2.0470667e-38
-0.074760005 0.17240573 0.53400004 2.0010064e-38
-0.07360477 0.17208287 0.53300005 1.798176e-38
-0.072453335 0.17176001 0.53200001 1.2372253e-38
-0.071305715 0.17143714 0.53100002 8.4078412e-39
-0.069897138 0.17046857 0.528 7.0385624e-39
-0.068760954 0.17014571 0.52700001 8.14491e-39
-0.06762857 0.16982287 0.52600002 9.1540201e-39
-0.066500001 0.16950001 0.52500004 9.2462157e-39
-0.065499999 0.16950001 0.52500004 9.1550991e-39
-0.064500004 0.16950001 0.52500004 8.9707078e-39
-0.063500002 0.16950001 0.52500004 9.797216e-39
-0.062500007 0.16950001 0.52500004 8.8752597e-39
-0.061500005 0.16950001 0.52500004 1.282779e-38
-0.060384769 0.16917716 0.52400005 1.9465876e-38
-0.059273332 0.16885428 0.523 2.341769e-38
-0.058165714 0.16853143 0.52200001 2.341769e-38
-0.05717143 0.16853143 0.52200001 2.341769e-38
-0.056177143 0.16853143 0.52200001 2.0744017e-38
-0.055182859 0.16853143 0.52200001 1.687364e-38
-0.054188572 0.16853143 0.52200001 1.4476554e-38
-0.053194284 0.16853143 0.52200001 1.4663437e-38
-0.052200001 0.16853143 0.52200001 1.5308806e-38
-0.051205717 0.16853143 0.52200001 1.5585393e-38
-0.05021143 0.16853143 0.52200001 1.5677588e-38
-0.049217142 0.16853143 0.52200001 1.5769068e-38
-0.048222858 0.16853143 0.52200001 1.5953459e-38
-0.047228571 0.16853143 0.52200001 1.5953457e-38
-0.046322856 0.16885428 0.523 1.567687e-38
-0.045326665 0.16885428 0.523 1.567687e-38
-0.044330478 0.16885428 0.523 1.5308087e-38
-0.043334283 0.16885428 0.523 1.6503005e-38
-0.042338096 0.16885428 0.523 1.8807896e-38
-0.041420955 0.16917716 0.52400005 2.0835146e-38
-0.040345713 0.16885428 0.523 2.3508809e-38
-0.039349526 0.16885428 0.523 2.341769e-38
-0.038426671 0.16917716 0.52400005 2.341769e-38
-0.037500001 0.16950001 0.52500004 2.3326213e-38
-0.036499999 0.16950001 0.52500004 2.0191562e-38
-0.035500001 0.16950001 0.52500004 1.7161373e-38
-0.034565717 0.16982287 0.52600002 1.7069177e-38
-0.033563811 0.16982287 0.52600002 1.6703998e-38
-0.032623809 0.17014571 0.52700001 1.6796193e-38
-0.03162 0.17014571 0.52700001 1.6704714e-38
-0.030674286 0.17046857 0.528 1.6612518e-38
-0.029724764 0.17079143 0.52900004 1.6428487e-38
-0.028717143 0.17079143 0.52900004 1.6336291e-38
-0.027761906 0.1711143 0.53000003 1.5968591e-38
-0.026903812 0.17208287 0.53300005 1.5231025e-38
-0.025937144 0.17240573 0.53400004 1.7251758e-38
-0.025013333 0.17305143 0.53600001 2.0662985e-38
-0.024037143 0.17337428 0.537 2.2958154e-38
-0.0231 0.17402001 0.53900003 2.0653263e-38
-0.022114286 0.17434287 0.54000002 2.1851771e-38
-0.021085715 0.17434287 0.54000002 2.314251e-38
-0.020057144 0.17434287 0.54000002 2.3326213e-38
-0.019099049 0.1749886 0.54200006 2.2957431e-38
-0.018166667 0.17595714 0.54500002 2.2222033e-38
-0.01716 0.17627999 0.546 1.9456165e-38
-0.016149525 0.17660287 0.54700005 1.6880457e-38
-0.015218095 0.17789428 0.551 1.4759958e-38
-0.014168571 0.17789428 0.551 1.5865227e-38
-0.07912381 0.17407238 0.53600001 1.5861967e-38
-0.077957146 0.17374763 0.53500003 1.9365401e-38
-0.0769381 0.17374763 0.53500003 2.019229e-38
-0.075777151 0.17342286 0.53400004 1.9915704e-38
-0.074760005 0.17342286 0.53400004 1.9733092e-38
-0.07360477 0.17309812 0.53300005 1.9179918e-38
-0.072453335 0.17277333 0.53200001 1.5134185e-38
-0.071305715 0.17244858 0.53100002 9.8790337e-39
-0.070029527 0.17179905 0.52900004 7.2207957e-39
-0.068760954 0.17114952 0.52700001 8.3271433e-39
-0.06762857 0.17082477 0.52600002 9.429172e-39
-0.066500001 0.17050001 0.52500004 9.429172e-39
-0.065499999 0.17050001 0.52500004 9.2469388e-39
-0.064500004 0.17050001 0.52500004 9.2469388e-39
-0.063500002 0.17050001 0.52500004 8.9710679e-39
-0.062500007 0.17050001 0.52500004 7.219351e-39
-0.061500005 0.17050001 0.52500004 1.0437881e-38
-0.060500003 0.17050001 0.52500004 1.6430597e-38
-0.059386671 0.17017525 0.52400005 2.2589008e-38
-0.058277145 0.16985048 0.523 2.3234378e-38
-0.057280954 0.16985048 0.523 2.341769e-38
-0.056284759 0.16985048 0.523 1.7240583e-38
-0.055288572 0.16985048 0.523 1.6133519e-38
-0.054188572 0.16952571 0.52200001 1.5395954e-38
-0.053194284 0.16952571 0.52200001 1.5124059e-38
-0.052200001 0.16952571 0.52200001 1.5585037e-38
-0.051205717 0.16952571 0.52200001 1.5585753e-38
-0.05021143 0.16952571 0.52200001 1.5493557e-38
-0.049217142 0.16952571 0.52200001 1.5494276e-38
-0.048222858 0.16952571 0.52200001 1.5678667e-38
-0.047228571 0.16952571 0.52200001 1.6045652e-38
-0.046322856 0.16985048 0.523 1.5861261e-38
-0.045413338 0.17017525 0.52400005 1.5402081e-38
-0.044415243 0.17017525 0.52400005 1.5217689e-38
-0.043417148 0.17017525 0.52400005 1.4941077e-38
-0.04241905 0.17017525 0.52400005 1.4756686e-38
-0.041420955 0.17017525 0.52400005 1.9083404e-38
-0.040422861 0.17017525 0.52400005 2.3509514e-38
-0.039424766 0.17017525 0.52400005 2.341769e-38
-0.038500004 0.17050001 0.52500004 2.341769e-38
-0.037500001 0.17050001 0.52500004 2.3142182e-38
-0.036499999 0.17050001 0.52500004 1.9085574e-38
-0.035500001 0.17050001 0.52500004 1.6334849e-38
-0.034565717 0.17082477 0.52600002 1.6888023e-38
-0.033563811 0.17082477 0.52600002 1.6796193e-38
-0.032623809 0.17114952 0.52700001 1.6703998e-38
-0.031679999 0.17147429 0.528 1.6520685e-38
-0.030732382 0.17179905 0.52900004 1.6520685e-38
-0.029724764 0.17179905 0.52900004 1.6245177e-38
-0.028771428 0.17212382 0.53000003 1.5876395e-38
-0.027814288 0.17244858 0.53100002 1.5508335e-38
-0.026903812 0.17309812 0.53300005 1.5139553e-38
-0.025937144 0.17342286 0.53400004 1.8355603e-38
-0.025013333 0.17407238 0.53600001 2.158134e-38
-0.024037143 0.17439714 0.537 2.3234378e-38
-0.023142857 0.17537144 0.54000002 1.7979227e-38
-0.022114286 0.17537144 0.54000002 1.8160722e-38
-0.021085715 0.17537144 0.54000002 2.1387569e-38
-0.020094287 0.17569619 0.54100001 2.2403535e-38
-0.019134287 0.17634572 0.54300004 2.2864513e-38
-0.018166667 0.17699523 0.54500002 2.2681572e-38
-0.017222859 0.17796953 0.54800004 1.9454725e-38
-0.016179048 0.17796953 0.54800004 1.6787536e-38
-0.015218095 0.17894381 0.551 1.5404602e-38
-0.014168571 0.17894381 0.551 1.6324763e-38
-0.013119048 0.17894381 0.551 1.7892088e-38
-0.077957146 0.17476667 0.53500003 1.9641259e-38
-0.0769381 0.17476667 0.53500003 2.0006815e-38
-0.075777151 0.17444001 0.53400004 1.7056554e-38
-0.074760005 0.17444001 0.53400004 1.6413693e-38
-0.07360477 0.17411335 0.53300005 1.9271758e-38
-0.072589532 0.17411335 0.53300005 1.8813689e-38
-0.071440004 0.17378667 0.53200001 1.4849277e-38
-0.070029527 0.17280668 0.52900004 9.1515201e-39
-0.068891428 0.17248 0.528 8.4139551e-39
-0.067757145 0.17215334 0.52700001 8.6944951e-39
-0.066626668 0.17182668 0.52600002 8.9710819e-39
-0.065499999 0.17150001 0.52500004 9.3391344e-39
-0.064500004 0.17150001 0.52500004 9.3391344e-39
-0.063500002 0.17150001 0.52500004 9.1558249e-39
-0.062500007 0.17150001 0.52500004 8.2338686e-39
-0.061500005 0.17150001 0.52500004 8.9681841e-39
-0.060500003 0.17150001 0.52500004 1.2656009e-38
-0.059386671 0.17117333 0.52400005 2.1484433e-38
-0.058388576 0.17117333 0.52400005 2.314252e-38
-0.057280954 0.17084667 0.523 2.341769e-38
-0.056284759 0.17084667 0.523 1.5488866e-38
-0.055288572 0.17084667 0.523 1.3650001e-38
-0.054292381 0.17084667 0.523 1.5125131e-38
-0.05329619 0.17084667 0.523 1.5677588e-38
-0.052299999 0.17084667 0.523 1.5677588e-38
-0.051303808 0.17084667 0.523 1.55854e-38
-0.05030762 0.17084667 0.523 1.5677595e-38
-0.049311429 0.17084667 0.523 1.5954175e-38
-0.048315238 0.17084667 0.523 1.5954175e-38
-0.047319047 0.17084667 0.523 1.5953819e-38
-0.046411432 0.17117333 0.52400005 1.5861624e-38
-0.045500003 0.17150001 0.52500004 1.5861627e-38
-0.044500001 0.17150001 0.52500004 1.6138214e-38
-0.043500002 0.17150001 0.52500004 1.586198e-38
-0.042500004 0.17150001 0.52500004 1.4294654e-38
-0.041500002 0.17150001 0.52500004 1.5399214e-38
-0.0405 0.17150001 0.52500004 2.2774843e-38
-0.039500002 0.17150001 0.52500004 2.341769e-38
-0.038500004 0.17150001 0.52500004 2.341769e-38
-0.037500001 0.17150001 0.52500004 2.3050705e-38
-0.036569525 0.17182668 0.52600002 1.8625315e-38
-0.035567619 0.17182668 0.52600002 1.5508335e-38
-0.034631427 0.17215334 0.52700001 1.6153705e-38
-0.033691429 0.17248 0.528 1.6612881e-38
-0.032685712 0.17248 0.528 1.642849e-38
-0.031740002 0.17280668 0.52900004 1.6520685e-38
-0.030732382 0.17280668 0.52900004 1.6520685e-38
-0.029780954 0.17313334 0.53000003 1.5968235e-38
-0.028825713 0.17346001 0.53100002 1.5507256e-38
-0.027866667 0.17378667 0.53200001 1.6792946e-38
-0.026954288 0.17444001 0.53400004 1.8913446e-38
-0.025985716 0.17476667 0.53500003 2.2867034e-38
-0.02506 0.17541999 0.537 2.2958871e-38
-0.024126668 0.17607334 0.53900003 2.2866301e-38
-0.023142857 0.17640001 0.54000002 1.4015521e-38
-0.022114286 0.17640001 0.54000002 1.3372317e-38
-0.021085715 0.17640001 0.54000002 1.4663055e-38
-0.020094287 0.17672667 0.54100001 1.5306295e-38
-0.019134287 0.17738001 0.54300004 2.0008272e-38
-0.018166667 0.17803334 0.54500002 2.0469966e-38
-0.017285714 0.17966667 0.55000001 1.9087032e-38
-0.016238095 0.17966667 0.55000001 1.6694621e-38
-0.015190477 0.17966667 0.55000001 1.5588274e-38
-0.078977153 0.17808573 0.54200006 1.9546906e-38
-0.077225715 0.17644286 0.537 1.8994468e-38
-0.076060951 0.17611428 0.53600001 1.4384686e-38
-0.074900001 0.17578572 0.53500003 1.4567571e-38
-0.073742867 0.17545715 0.53400004 1.7886614e-38
-0.072725721 0.17545715 0.53400004 2.0008622e-38
-0.071440004 0.17480001 0.53200001 1.8256905e-38
-0.070426665 0.17480001 0.53200001 1.108659e-38
-0.069152378 0.17414287 0.53000003 8.7816993e-39
-0.068014294 0.1738143 0.52900004 7.7750485e-39
-0.066879995 0.17348571 0.528 8.5126135e-39
-0.065749526 0.17315714 0.52700001 9.615001e-39
-0.064622857 0.17282857 0.52600002 9.4306097e-39
-0.063500002 0.17250001 0.52500004 9.5235284e-39
-0.062500007 0.17250001 0.52500004 8.5093765e-39
-0.061617147 0.17282857 0.52600002 6.3038743e-39
-0.060500003 0.17250001 0.52500004 1.0913656e-38
-0.059500005 0.17250001 0.52500004 1.899806e-38
-0.058500003 0.17250001 0.52500004 2.240786e-38
-0.057390481 0.17217144 0.52400005 2.3050705e-38
-0.056392387 0.17217144 0.52400005 1.5859446e-38
-0.055394292 0.17217144 0.52400005 1.3559607e-38
-0.054292381 0.17184286 0.523 1.475815e-38
-0.05329619 0.17184286 0.523 1.5585393e-38
-0.052299999 0.17184286 0.523 1.5585393e-38
-0.051303808 0.17184286 0.523 1.558504e-38
-0.05030762 0.17184286 0.523 1.5861627e-38
-0.049311429 0.17184286 0.523 1.6137848e-38
-0.048315238 0.17184286 0.523 1.6137848e-38
-0.047319047 0.17184286 0.523 1.6137848e-38
-0.046411432 0.17217144 0.52400005 1.6045652e-38
-0.045500003 0.17250001 0.52500004 1.6045655e-38
-0.044500001 0.17250001 0.52500004 1.6137851e-38
-0.043500002 0.17250001 0.52500004 1.5770144e-38
-0.042500004 0.17250001 0.52500004 1.4202819e-38
-0.041500002 0.17250001 0.52500004 1.494074e-38
-0.040577143 0.17282857 0.52600002 2.2499695e-38
-0.039575238 0.17282857 0.52600002 2.341769e-38
-0.038573336 0.17282857 0.52600002 2.341769e-38
-0.03757143 0.17282857 0.52600002 2.2682643e-38
-0.03663905 0.17315714 0.52700001 1.8810427e-38
-0.035635237 0.17315714 0.52700001 1.6426343e-38
-0.034697141 0.17348571 0.528 1.6518539e-38
-0.033691429 0.17348571 0.528 1.6060786e-38
-0.032747623 0.1738143 0.52900004 1.6152982e-38
-0.031740002 0.1738143 0.52900004 1.6428487e-38
-0.030790478 0.17414287 0.53000003 1.6336291e-38
-0.029837143 0.17447144 0.53100002 1.5967509e-38
-0.028825713 0.17447144 0.53100002 1.5506531e-38
-0.027866667 0.17480001 0.53200001 1.6884786e-38
-0.026954288 0.17545715 0.53400004 2.0387479e-38
-0.026180001 0.17710002 0.53900003 2.3050705e-38
-0.025153333 0.17710002 0.53900003 2.2589727e-38
-0.024126668 0.17710002 0.53900003 2.0099726e-38
-0.023142857 0.17742857 0.54000002 1.4014815e-38
-0.022114286 0.17742857 0.54000002 1.291243e-38
-0.021085715 0.17742857 0.54000002 1.291243e-38
-0.020094287 0.17775714 0.54100001 1.2913121e-38
-0.019134287 0.1784143 0.54300004 1.8537054e-38
-0.018366667 0.18104285 0.551 2.0377765e-38
-0.017317142 0.18104285 0.551 1.9179222e-38
-0.016267618 0.18104285 0.551 1.6234009e-38
-0.015218095 0.18104285 0.551 1.5680835e-38
-0.081490479 0.18010953 0.54500002 1.3557083e-38
-0.080304772 0.17977905 0.54400003 1.484638e-38
-0.078977153 0.17911811 0.54200006 1.6782489e-38
-0.077800952 0.17878762 0.54100001 1.6503731e-38
-0.076486669 0.17812666 0.53900003 1.2170536e-38
-0.075039998 0.17713524 0.53600001 1.1619902e-38
-0.073742867 0.1764743 0.53400004 1.5492118e-38
-0.072725721 0.1764743 0.53400004 1.7520409e-38
-0.071574293 0.17614383 0.53300005 2.0747257e-38
-0.070426665 0.17581333 0.53200001 1.7435812e-38
-0.06928286 0.17548285 0.53100002 1.1719683e-38
-0.068014294 0.17482193 0.52900004 6.3035225e-39
-0.066879995 0.17449144 0.528 7.3176745e-39
-0.065874286 0.17449144 0.528 8.6955656e-39
-0.064745717 0.17416096 0.52700001 8.60337e-39
-0.063620955 0.17383048 0.52600002 7.9601698e-39
-0.062619045 0.17383048 0.52600002 6.2084528e-39
-0.061617147 0.17383048 0.52600002 6.5797325e-39
-0.060615242 0.17383048 0.52600002 1.3125622e-38
-0.059500005 0.17350002 0.52500004 2.0932383e-38
-0.058500003 0.17350002 0.52500004 2.2591531e-38
-0.057390481 0.17316954 0.52400005 2.3326213e-38
-0.056392387 0.17316954 0.52400005 1.7241302e-38
-0.055394292 0.17316954 0.52400005 1.2732054e-38
-0.054396193 0.17316954 0.52400005 1.3193032e-38
-0.053398099 0.17316954 0.52400005 1.4665239e-38
-0.052400004 0.17316954 0.52400005 1.5034021e-38
-0.051401909 0.17316954 0.52400005 1.5492488e-38
-0.050403811 0.17316954 0.52400005 1.5769075e-38
-0.049405716 0.17316954 0.52400005 1.6045649e-38
-0.048407622 0.17316954 0.52400005 1.6230041e-38
-0.047409531 0.17316954 0.52400005 1.6230043e-38
-0.046500005 0.17350002 0.52500004 1.6137848e-38
-0.045500003 0.17350002 0.52500004 1.5954175e-38
-0.044500001 0.17350002 0.52500004 1.5769784e-38
-0.043500002 0.17350002 0.52500004 1.4941823e-38
-0.042500004 0.17350002 0.52500004 1.4480845e-38
-0.041500002 0.17350002 0.52500004 1.5859515e-38
-0.040577143 0.17383048 0.52600002 2.2589737e-38
-0.039575238 0.17383048 0.52600002 2.341769e-38
-0.038573336 0.17383048 0.52600002 2.341769e-38
-0.037642859 0.17416096 0.52700001 2.3142182e-38
-0.036708571 0.17449144 0.528 2.2220226e-38
-0.035702854 0.17449144 0.528 1.8451759e-38
-0.034762859 0.17482193 0.52900004 1.6976631e-38
-0.033755243 0.17482193 0.52900004 1.4956964e-38
-0.032747623 0.17482193 0.52900004 1.5325746e-38
-0.031800002 0.17515238 0.53000003 1.6060786e-38
-0.030848574 0.17548285 0.53100002 1.5784199e-38
-0.029837143 0.17548285 0.53100002 1.5966786e-38
-0.028879998 0.17581333 0.53200001 1.6612155e-38
-0.02791905 0.17614383 0.53300005 2.0104428e-38
-0.026954288 0.1764743 0.53400004 2.2224189e-38
-0.026180001 0.17812666 0.53900003 2.3326213e-38
-0.0252 0.17845714 0.54000002 1.8993019e-38
-0.024171429 0.17845714 0.54000002 1.641262e-38
-0.023142857 0.17845714 0.54000002 1.4384316e-38
-0.022114286 0.17845714 0.54000002 1.4294298e-38
-0.021085715 0.17845714 0.54000002 1.4017711e-38
-0.020131432 0.17911811 0.54200006 1.3373774e-38
-0.019099049 0.17911811 0.54200006 1.724599e-38
-0.018333333 0.18176191 0.55000001 1.9365035e-38
-0.017254286 0.18143143 0.54900002 1.9180644e-38
-0.016208572 0.18143143 0.54900002 1.6786104e-38
-0.015162857 0.18143143 0.54900002 1.5956343e-38
-0.082680002 0.18148001 0.546 1.5216605e-38
-0.081490479 0.18114762 0.54500002 1.3649279e-38
-0.080304772 0.18081523 0.54400003 1.3834739e-38
-0.079122864 0.18048288 0.54300004 1.5494261e-38
-0.07794477 0.18015049 0.54200006 1.4939658e-38
-0.076486669 0.17915334 0.53900003 1.1897202e-38
-0.075180002 0.17848857 0.537 1.2265246e-38
-0.073880956 0.17782381 0.53500003 1.3555985e-38
-0.072725721 0.17749144 0.53400004 1.6779216e-38
-0.071708575 0.17749144 0.53400004 2.1388998e-38
-0.070426665 0.17682667 0.53200001 1.927684e-38
-0.069413334 0.17682667 0.53200001 1.4574863e-38
-0.068142861 0.17616192 0.53000003 7.316255e-39
-0.06700667 0.17582954 0.52900004 7.1318637e-39
-0.065874286 0.17549714 0.528 7.8665182e-39
-0.064745717 0.17516476 0.52700001 7.9587139e-39
-0.063741907 0.17516476 0.52700001 5.8454255e-39
-0.062738098 0.17516476 0.52700001 5.2922517e-39
-0.061734285 0.17516476 0.52700001 9.2469416e-39
-0.060730476 0.17516476 0.52700001 1.6161611e-38
-0.059613336 0.17483239 0.52600002 2.2682646e-38
-0.058500003 0.1745 0.52500004 2.2958873e-38
-0.057500005 0.1745 0.52500004 2.3234378e-38
-0.056500003 0.1745 0.52500004 1.8993379e-38
-0.055500004 0.1745 0.52500004 1.5770176e-38
-0.054500002 0.1745 0.52500004 1.4110655e-38
-0.053398099 0.17416763 0.52400005 1.4479052e-38
-0.052400004 0.17416763 0.52400005 1.5216617e-38
-0.051401909 0.17416763 0.52400005 1.5308816e-38
-0.050500005 0.1745 0.52500004 1.5769794e-38
-0.049500003 0.1745 0.52500004 1.6137488e-38
-0.048500001 0.1745 0.52500004 1.6229683e-38
-0.047500003 0.1745 0.52500004 1.6137851e-38
-0.046500005 0.1745 0.52500004 1.6045655e-38
-0.045500003 0.1745 0.52500004 1.586198e-38
-0.044500001 0.1745 0.52500004 1.5308806e-38
-0.043500002 0.1745 0.52500004 1.4206056e-38
-0.042580955 0.17483239 0.52600002 1.5773381e-38
-0.041579049 0.17483239 0.52600002 2.0282685e-38
-0.040577143 0.17483239 0.52600002 2.3417333e-38
-0.039650474 0.17516476 0.52700001 2.341769e-38
-0.038646668 0.17516476 0.52700001 2.341769e-38
-0.037714284 0.17549714 0.528 2.341769e-38
-0.0367781 0.17582954 0.52900004 2.3325494e-38
-0.035770476 0.17582954 0.52900004 2.2039797e-38
-0.034762859 0.17582954 0.52900004 1.9734907e-38
-0.03381905 0.17616192 0.53000003 1.6244098e-38
-0.032809526 0.17616192 0.53000003 1.5967512e-38
-0.031860001 0.17649429 0.53100002 1.5600171e-38
-0.030906666 0.17682667 0.53200001 1.5231388e-38
-0.029949525 0.17715906 0.53300005 1.5690193e-38
-0.028934287 0.17715906 0.53300005 1.7534106e-38
-0.027971432 0.17749144 0.53400004 2.2221317e-38
-0.026954288 0.17749144 0.53400004 2.2958873e-38
-0.026180001 0.17915334 0.53900003 2.341769e-38
-0.0252 0.17948572 0.54000002 1.6134235e-38
-0.024171429 0.17948572 0.54000002 1.548814e-38
-0.023185715 0.17981809 0.54100001 1.5211553e-38
-0.022155238 0.17981809 0.54100001 1.4755276e-38
-0.021163812 0.18015049 0.54200006 1.4017711e-38
-0.020205716 0.18081523 0.54400003 1.2821329e-38
-0.019169524 0.18081523 0.54400003 1.7246719e-38
-0.018333333 0.18280952 0.55000001 1.8903717e-38
-0.017254286 0.18247715 0.54900002 1.9088108e-38
-0.016208572 0.18247715 0.54900002 1.6879028e-38
-0.083719999 0.18251999 0.546 1.6135683e-38
-0.082680002 0.18251999 0.546 1.5583948e-38
-0.081639998 0.18251999 0.546 1.4108818e-38
-0.080452383 0.18218572 0.54500002 1.3926219e-38
-0.079268575 0.18185145 0.54400003 1.5770132e-38
-0.078088574 0.18151715 0.54300004 1.5768693e-38
-0.076770477 0.18084857 0.54100001 1.244965e-38
-0.075600006 0.18051429 0.54000002 1.2357477e-38
-0.074295245 0.17984572 0.53800005 1.2357477e-38
-0.07286191 0.17884286 0.53500003 1.3645304e-38
-0.071708575 0.17850859 0.53400004 1.9269237e-38
-0.070559055 0.1781743 0.53300005 2.0469961e-38
-0.069413334 0.17783999 0.53200001 1.9916787e-38
-0.068271436 0.17750572 0.53100002 1.3571531e-38
-0.06700667 0.17683716 0.52900004 7.4866192e-39
-0.065999053 0.17683716 0.52900004 2.9945664e-39
-0.064868569 0.17650285 0.528 4.7462834e-39
-0.063862853 0.17650285 0.528 9.4288259e-39
-0.062738098 0.17616858 0.52700001 1.4222999e-38
-0.061734285 0.17616858 0.52700001 1.9737077e-38
-0.060730476 0.17616858 0.52700001 2.1948682e-38
-0.059613336 0.17583428 0.52600002 2.3326213e-38
-0.058500003 0.17550001 0.52500004 2.3326213e-38
-0.057500005 0.17550001 0.52500004 2.3326213e-38
-0.056500003 0.17550001 0.52500004 2.3049626e-38
-0.055500004 0.17550001 0.52500004 1.9088867e-38
-0.054500002 0.17550001 0.52500004 1.4940067e-38
-0.053500004 0.17550001 0.52500004 1.2272856e-38
-0.052500002 0.17550001 0.52500004 1.3194813e-38
-0.051500004 0.17550001 0.52500004 1.484928e-38
-0.050500005 0.17550001 0.52500004 1.5494649e-38
-0.049500003 0.17550001 0.52500004 1.5953457e-38
-0.048500001 0.17550001 0.52500004 1.5953457e-38
-0.047500003 0.17550001 0.52500004 1.5953459e-38
-0.046588574 0.17583428 0.52600002 1.5584677e-38
-0.045586668 0.17583428 0.52600002 1.4848551e-38
-0.044584766 0.17583428 0.52600002 1.4387573e-38
-0.043665715 0.17616858 0.52700001 1.521628e-38
-0.042661905 0.17616858 0.52700001 2.2315307e-38
-0.041658096 0.17616858 0.52700001 2.341769e-38
-0.04073143 0.17650285 0.528 2.341769e-38
-0.039725713 0.17650285 0.528 2.341769e-38
-0.038719997 0.17650285 0.528 2.341769e-38
-0.037785716 0.17683716 0.52900004 2.3326213e-38
-0.0367781 0.17683716 0.52900004 2.3326213e-38
-0.035770476 0.17683716 0.52900004 2.3142182e-38
-0.034762859 0.17683716 0.52900004 2.3049986e-38
-0.03381905 0.17717144 0.53000003 2.20398e-38
-0.032871429 0.17750572 0.53100002 2.056467e-38
-0.031860001 0.17750572 0.53100002 1.7072061e-38
-0.030906666 0.17783999 0.53200001 1.541254e-38
-0.029893333 0.17783999 0.53200001 1.7345399e-38
-0.028934287 0.1781743 0.53300005 2.0938492e-38
-0.027971432 0.17850859 0.53400004 2.3326213e-38
-0.027004763 0.17884286 0.53500003 2.2588648e-38
-0.026228571 0.18051429 0.54000002 2.1114216e-38
-0.0252 0.18051429 0.54000002 1.51215e-38
-0.024171429 0.18051429 0.54000002 1.4109191e-38
-0.023228575 0.18118288 0.54200006 1.475456e-38
-0.022237144 0.18151715 0.54300004 1.4755639e-38
-0.021241905 0.18185145 0.54400003 1.3833683e-38
-0.020205716 0.18185145 0.54400003 1.2822058e-38
-0.019169524 0.18185145 0.54400003 1.761623e-38
-0.018133335 0.18185145 0.54400003 2.0839452e-38
-0.084026672 0.1842324 0.54800004 1.6319355e-38
-0.082982861 0.1842324 0.54800004 1.5675781e-38
-0.081789531 0.1838962 0.54700005 1.4477238e-38
-0.080452383 0.18322381 0.54500002 1.4201727e-38
-0.079268575 0.18288763 0.54400003 1.6137835e-38
-0.078232385 0.18288763 0.54400003 1.6413005e-38
-0.077054292 0.18255144 0.54300004 1.272518e-38
-0.075600006 0.18154286 0.54000002 1.2265631e-38
-0.074433342 0.18120667 0.53900003 1.2357827e-38
-0.073134288 0.18053429 0.537 1.3277224e-38
-0.071842864 0.17986192 0.53500003 1.7241637e-38
-0.070691437 0.17952573 0.53400004 1.9914972e-38
-0.069413334 0.17885333 0.53200001 2.1205711e-38
-0.068271436 0.17851715 0.53100002 1.7896794e-38
-0.067133337 0.17818096 0.53000003 1.0060166e-38
-0.065999053 0.17784478 0.52900004 5.6574006e-39
-0.064991429 0.17784478 0.52900004 7.9622914e-39
-0.063862853 0.17750858 0.528 1.4854672e-38
-0.062857144 0.17750858 0.528 1.9095671e-38
-0.06196858 0.17784478 0.52900004 2.2865961e-38
-0.060845714 0.17750858 0.528 2.3142544e-38
-0.059613336 0.17683619 0.52600002 2.3326213e-38
-0.05861143 0.17683619 0.52600002 2.3141822e-38
-0.057500005 0.17650001 0.52500004 2.305034e-38
-0.056500003 0.17650001 0.52500004 2.3234372e-38
-0.055500004 0.17650001 0.52500004 2.3050705e-38
-0.054500002 0.17650001 0.52500004 1.9270685e-38
-0.053500004 0.17650001 0.52500004 1.4484849e-38
-0.052500002 0.17650001 0.52500004 1.3378502e-38
-0.051500004 0.17650001 0.52500004 1.4480141e-38
-0.050500005 0.17650001 0.52500004 1.5217706e-38
-0.049500003 0.17650001 0.52500004 1.5769065e-38
-0.048500001 0.17650001 0.52500004 1.5769065e-38
-0.047500003 0.17650001 0.52500004 1.5769065e-38
-0.046588574 0.17683619 0.52600002 1.5123696e-38
-0.045673333 0.17717238 0.52700001 1.4112065e-38
-0.044669524 0.17717238 0.52700001 1.5034021e-38
-0.043665715 0.17717238 0.52700001 1.9084858e-38
-0.042742856 0.17750858 0.528 2.3325856e-38
-0.041737143 0.17750858 0.528 2.341769e-38
-0.04073143 0.17750858 0.528 2.341769e-38
-0.039800957 0.17784478 0.52900004 2.3326213e-38
-0.038793333 0.17784478 0.52900004 2.1758888e-38
-0.037785716 0.17784478 0.52900004 2.2774106e-38
-0.0367781 0.17784478 0.52900004 2.3234367e-38
-0.035838097 0.17818096 0.53000003 2.341769e-38
-0.034828573 0.17818096 0.53000003 2.341769e-38
-0.03381905 0.17818096 0.53000003 2.3142182e-38
-0.032933336 0.17885333 0.53200001 2.2589008e-38
-0.031919997 0.17885333 0.53200001 1.8913433e-38
-0.030906666 0.17885333 0.53200001 1.6516347e-38
-0.029893333 0.17885333 0.53200001 1.835666e-38
-0.028934287 0.17918953 0.53300005 2.1673176e-38
-0.027971432 0.17952573 0.53400004 2.3326213e-38
-0.027206667 0.18120667 0.53900003 1.9453997e-38
-0.026228571 0.18154286 0.54000002 1.7793754e-38
-0.0252 0.18154286 0.54000002 1.5027885e-38
-0.02421619 0.18187906 0.54100001 1.4294654e-38
-0.023228575 0.18221526 0.54200006 1.4847828e-38
-0.022278097 0.18288763 0.54400003 1.4755639e-38
-0.021241905 0.18288763 0.54400003 1.34649e-38
-0.020205716 0.18288763 0.54400003 1.2637301e-38
-0.019169524 0.18288763 0.54400003 1.8537821e-38
-0.084180005 0.18561429 0.54900002 1.6227878e-38
-0.083134286 0.18561429 0.54900002 1.5583585e-38
-0.081939049 0.1852762 0.54800004 1.5030411e-38
-0.080452383 0.1842619 0.54500002 1.5766895e-38
-0.079414286 0.1842619 0.54500002 1.8993742e-38
-0.078232385 0.18392381 0.54400003 1.8533117e-38
-0.077054292 0.18358573 0.54300004 1.2816988e-38
-0.075740002 0.18290953 0.54100001 1.1899e-38
-0.074571431 0.18257144 0.54000002 1.272876e-38
-0.073270477 0.18189526 0.53800005 1.3186499e-38
-0.071977146 0.18121904 0.53600001 1.3647477e-38
-0.070956193 0.18121904 0.53600001 1.6320399e-38
-0.069543809 0.18020476 0.53300005 2.1667746e-38
-0.068399996 0.17986667 0.53200001 2.0011885e-38
-0.067133337 0.17919049 0.53000003 1.5309907e-38
-0.066123806 0.17919049 0.53000003 1.3478567e-38
-0.064991429 0.17885239 0.52900004 1.7903957e-38
-0.063983813 0.17885239 0.52900004 2.2591166e-38
-0.062976196 0.17885239 0.52900004 2.2867036e-38
-0.06196858 0.17885239 0.52900004 2.3234378e-38
-0.060960956 0.17885239 0.52900004 2.3234378e-38
-0.059840001 0.17851429 0.528 2.2682646e-38
-0.05861143 0.1778381 0.52600002 1.9455799e-38
-0.057609525 0.1778381 0.52600002 2.0009686e-38
-0.056607623 0.1778381 0.52600002 2.2867033e-38
-0.055605717 0.1778381 0.52600002 2.3234378e-38
-0.054603811 0.1778381 0.52600002 2.3142182e-38
-0.053500004 0.17750001 0.52500004 2.1853259e-38
-0.052500002 0.17750001 0.52500004 1.8165436e-38
-0.051500004 0.17750001 0.52500004 1.5588642e-38
-0.050596192 0.1778381 0.52600002 1.4205708e-38
-0.049594287 0.1778381 0.52600002 1.4205702e-38
-0.048592385 0.1778381 0.52600002 1.4390094e-38
-0.047590476 0.1778381 0.52600002 1.4296459e-38
-0.046588574 0.1778381 0.52600002 1.4665241e-38
-0.045673333 0.17817619 0.52700001 1.6875062e-38
-0.044754285 0.17851429 0.528 2.2683366e-38
-0.043748572 0.17851429 0.528 2.341769e-38
-0.042742856 0.17851429 0.528 2.341769e-38
-0.041816194 0.17885239 0.52900004 2.341769e-38
-0.040808573 0.17885239 0.52900004 2.3141103e-38
-0.039800957 0.17885239 0.52900004 1.7342177e-38
-0.038793333 0.17885239 0.52900004 1.2455809e-38
-0.037785716 0.17885239 0.52900004 1.4670636e-38
-0.0367781 0.17885239 0.52900004 2.0478956e-38
-0.035770476 0.17885239 0.52900004 2.341769e-38
-0.034828573 0.17919049 0.53000003 2.341769e-38
-0.03381905 0.17919049 0.53000003 2.3326213e-38
-0.032933336 0.17986667 0.53200001 2.3326213e-38
-0.031919997 0.17986667 0.53200001 2.2683365e-38
-0.030964766 0.18020476 0.53300005 2.2037995e-38
-0.029949525 0.18020476 0.53300005 2.3050705e-38
-0.028934287 0.18020476 0.53300005 2.3142542e-38
-0.028023811 0.18088095 0.53500003 2.341804e-38
-0.027206667 0.18223335 0.53900003 1.5304825e-38
-0.026228571 0.18257144 0.54000002 1.4109534e-38
-0.0252 0.18257144 0.54000002 1.4754904e-38
-0.024260955 0.18324764 0.54200006 1.493967e-38
-0.023314286 0.18392381 0.54400003 1.5124062e-38
-0.022278097 0.18392381 0.54400003 1.4387578e-38
-0.021241905 0.18392381 0.54400003 1.3004644e-38
-0.020242859 0.1842619 0.54500002 1.4110257e-38
-0.019204762 0.1842619 0.54500002 2.0102973e-38
-0.084180005 0.18666001 0.54900002 1.5952015e-38
-0.083134286 0.18666001 0.54900002 1.5491034e-38
-0.082088575 0.18666001 0.54900002 1.5122251e-38
-0.080895238 0.18632001 0.54800004 1.5859446e-38
-0.079560004 0.18563999 0.546 1.8625315e-38
-0.078376196 0.18530001 0.54500002 1.844059e-38
-0.077196196 0.18496001 0.54400003 1.3001048e-38
-0.075740002 0.18394001 0.54100001 1.2633325e-38
-0.074571431 0.18360001 0.54000002 1.3463086e-38
-0.073406667 0.18326002 0.53900003 1.3187941e-38
-0.072111428 0.18257999 0.537 1.2634767e-38
-0.071088567 0.18257999 0.537 1.4199537e-38
-0.069543809 0.18122002 0.53300005 1.9731274e-38
-0.068399996 0.18088 0.53200001 2.1207882e-38
-0.067259997 0.18054 0.53100002 1.8257621e-38
-0.066248573 0.18054 0.53100002 1.7708048e-38
-0.06511429 0.18020001 0.53000003 2.1764652e-38
-0.063983813 0.17986001 0.52900004 2.3050705e-38
-0.062976196 0.17986001 0.52900004 2.3142542e-38
-0.06196858 0.17986001 0.52900004 2.3234378e-38
-0.060960956 0.17986001 0.52900004 2.3142182e-38
-0.059953336 0.17986001 0.52900004 2.1117844e-38
-0.058834285 0.17952 0.528 1.761441e-38
-0.057719048 0.17918001 0.52700001 1.7891703e-38
-0.056607623 0.17884001 0.52600002 2.0749768e-38
-0.055605717 0.17884001 0.52600002 2.3326213e-38
-0.054603811 0.17884001 0.52600002 2.3326213e-38
-0.053601906 0.17884001 0.52600002 2.3234378e-38
-0.052600004 0.17884001 0.52600002 2.1851443e-38
-0.051598094 0.17884001 0.52600002 1.7434373e-38
-0.050596192 0.17884001 0.52600002 1.4945091e-38
-0.049594287 0.17884001 0.52600002 1.3194437e-38
-0.048592385 0.17884001 0.52600002 1.291785e-38
-0.047590476 0.17884001 0.52600002 1.3100074e-38
-0.046677142 0.17918001 0.52700001 1.5681551e-38
-0.045759998 0.17952 0.528 1.9915335e-38
-0.044754285 0.17952 0.528 2.3234378e-38
-0.043748572 0.17952 0.528 2.341769e-38
-0.042823814 0.17986001 0.52900004 2.341769e-38
-0.041816194 0.17986001 0.52900004 2.3326213e-38
-0.040808573 0.17986001 0.52900004 2.0283757e-38
-0.039800957 0.17986001 0.52900004 1.394099e-38
-0.038793333 0.17986001 0.52900004 9.5155999e-39
-0.037785716 0.17986001 0.52900004 1.0901746e-38
-0.0367781 0.17986001 0.52900004 1.5142745e-38
-0.035770476 0.17986001 0.52900004 2.1391184e-38
-0.034828573 0.18020001 0.53000003 2.3050705e-38
-0.03381905 0.18020001 0.53000003 2.3418043e-38
-0.032995243 0.18122002 0.53300005 2.3418043e-38
-0.03198 0.18122002 0.53300005 2.341769e-38
-0.031080954 0.18190001 0.53500003 2.341769e-38
-0.030061906 0.18190001 0.53500003 2.341769e-38
-0.029042857 0.18190001 0.53500003 2.341769e-38
-0.028023811 0.18190001 0.53500003 2.1113878e-38
-0.027257143 0.18360001 0.54000002 1.4383597e-38
-0.026228571 0.18360001 0.54000002 1.4017345e-38
-0.025246667 0.18394001 0.54100001 1.5123693e-38
-0.024260955 0.18428002 0.54200006 1.5215894e-38
-0.023314286 0.18496001 0.54400003 1.5031503e-38
-0.022278097 0.18496001 0.54400003 1.3927676e-38
-0.021280954 0.18530001 0.54500002 1.3558894e-38
-0.020242859 0.18530001 0.54500002 1.5675819e-38
-0.082238093 0.18804762 0.55000001 1.548996e-38
-0.080895238 0.18736382 0.54800004 1.5490308e-38
-0.079560004 0.18668 0.546 1.797959e-38
-0.078376196 0.1863381 0.54500002 1.8164354e-38
-0.077196196 0.18599619 0.54400003 1.5306289e-38
-0.075880013 0.18531239 0.54200006 1.2635143e-38
-0.074571431 0.18462858 0.54000002 1.2635143e-38
-0.073542856 0.18462858 0.54000002 1.3095402e-38
-0.072245724 0.18394478 0.53800005 1.2818815e-38
-0.071088567 0.18360285 0.537 1.3000322e-38
-0.069674291 0.18257715 0.53400004 1.6042778e-38
-0.068528578 0.18223526 0.53300005 1.7980316e-38
-0.067386672 0.18189333 0.53200001 2.1760336e-38
-0.066248573 0.18155144 0.53100002 2.231351e-38
-0.06511429 0.18120952 0.53000003 2.2958873e-38
-0.064104766 0.18120952 0.53000003 2.268157e-38
-0.063095242 0.18120952 0.53000003 2.2128396e-38
-0.062085714 0.18120952 0.53000003 2.0010793e-38
-0.061076194 0.18120952 0.53000003 1.8535663e-38
-0.059953336 0.18086763 0.52900004 1.66993e-38
-0.058945719 0.18086763 0.52900004 1.5961735e-38
-0.057938103 0.18086763 0.52900004 1.6605678e-38
-0.056822859 0.18052572 0.528 1.761983e-38
-0.055817138 0.18052572 0.528 2.1024194e-38
-0.054811426 0.18052572 0.528 2.286703e-38
-0.053703807 0.18018381 0.52700001 2.3326213e-38
-0.052700002 0.18018381 0.52700001 2.3326213e-38
-0.051598094 0.17984192 0.52600002 2.3050705e-38
-0.050596192 0.17984192 0.52600002 2.0192641e-38
-0.04968857 0.18018381 0.52700001 1.4852916e-38
-0.048684761 0.18018381 0.52700001 1.2824612e-38
-0.047680955 0.18018381 0.52700001 1.4941512e-38
-0.046765715 0.18052572 0.528 2.1948323e-38
-0.045759998 0.18052572 0.528 2.341769e-38
-0.044754285 0.18052572 0.528 2.341769e-38
-0.04383143 0.18086763 0.52900004 2.341769e-38
-0.042823814 0.18086763 0.52900004 2.341769e-38
-0.041816194 0.18086763 0.52900004 2.0382074e-38
-0.040808573 0.18086763 0.52900004 1.3836184e-38
-0.039876193 0.18120952 0.53000003 9.2490968e-39
-0.038866669 0.18120952 0.53000003 9.0647055e-39
-0.037857145 0.18120952 0.53000003 1.0261093e-38
-0.036847621 0.18120952 0.53000003 1.0076702e-38
-0.035905715 0.18155144 0.53100002 1.2371143e-38
-0.034959998 0.18189333 0.53200001 1.4583839e-38
-0.033946667 0.18189333 0.53200001 1.9365386e-38
-0.033057146 0.18257715 0.53400004 2.2775189e-38
-0.03204 0.18257715 0.53400004 2.341769e-38
-0.031080954 0.18291906 0.53500003 2.341769e-38
-0.030061906 0.18291906 0.53500003 2.341769e-38
-0.029042857 0.18291906 0.53500003 2.0744017e-38
-0.028076192 0.18326096 0.53600001 1.7887737e-38
-0.027257143 0.18462858 0.54000002 1.466089e-38
-0.026228571 0.18462858 0.54000002 1.4570532e-38
-0.025293335 0.18531239 0.54200006 1.503151e-38
-0.024305716 0.1856543 0.54300004 1.4847475e-38
-0.023314286 0.18599619 0.54400003 1.4478692e-38
-0.022360001 0.18668 0.546 1.4110263e-38
-0.02132 0.18668 0.546 1.6507349e-38
-0.02028 0.18668 0.546 1.8441319e-38
-0.080452383 0.1873762 0.54500002 1.5582506e-38
-0.079414286 0.1873762 0.54500002 1.7242028e-38
-0.078376196 0.1873762 0.54500002 1.7245627e-38
-0.077196196 0.1870324 0.54400003 1.6047084e-38
-0.075880013 0.18634477 0.54200006 1.4111359e-38
-0.07470952 0.18600096 0.54100001 1.2451837e-38
-0.073542856 0.18565714 0.54000002 1.2911714e-38
-0.072380006 0.18531334 0.53900003 1.3096105e-38
-0.071353339 0.18531334 0.53900003 1.3186496e-38
-0.06993524 0.1842819 0.53600001 1.3463083e-38
-0.068528578 0.1832505 0.53300005 1.6963971e-38
-0.067386672 0.18290667 0.53200001 2.26801e-38
-0.066248573 0.18256286 0.53100002 2.3234378e-38
-0.06511429 0.18221906 0.53000003 2.3049986e-38
-0.064104766 0.18221906 0.53000003 2.2406062e-38
-0.063095242 0.18221906 0.53000003 2.0930932e-38
-0.06220286 0.18256286 0.53100002 1.8355943e-38
-0.061191428 0.18256286 0.53100002 1.6512031e-38
-0.06006667 0.18221906 0.53000003 1.5229218e-38
-0.059057143 0.18221906 0.53000003 1.5413609e-38
-0.057938103 0.18187524 0.52900004 1.559764e-38
-0.056930479 0.18187524 0.52900004 1.5689836e-38
-0.055922862 0.18187524 0.52900004 1.7894231e-38
-0.054915242 0.18187524 0.52900004 2.0014731e-38
-0.053805713 0.18153143 0.528 2.3234015e-38
-0.0528 0.18153143 0.528 2.332621e-38
-0.051794283 0.18153143 0.528 2.3326213e-38
-0.05078857 0.18153143 0.528 2.1943279e-38
-0.049782857 0.18153143 0.528 1.8630004e-38
-0.048777141 0.18153143 0.528 1.6693896e-38
-0.047771428 0.18153143 0.528 1.8259061e-38
-0.046765715 0.18153143 0.528 2.2591531e-38
-0.045846671 0.18187524 0.52900004 2.341769e-38
-0.044839051 0.18187524 0.52900004 2.341769e-38
-0.04383143 0.18187524 0.52900004 2.3326213e-38
-0.042823814 0.18187524 0.52900004 2.1021322e-38
-0.041816194 0.18187524 0.52900004 1.3852401e-38
-0.040808573 0.18187524 0.52900004 9.7035981e-39
-0.039876193 0.18221906 0.53000003 8.5154988e-39
-0.038866669 0.18221906 0.53000003 9.6218463e-39
-0.03792857 0.18256286 0.53100002 9.895199e-39
-0.036917143 0.18256286 0.53100002 9.0654384e-39
-0.035973333 0.18290667 0.53200001 9.3416455e-39
-0.03502572 0.1832505 0.53300005 9.1572543e-39
-0.034010477 0.1832505 0.53300005 1.4671315e-38
-0.033057146 0.1835943 0.53400004 1.7437184e-38
-0.032100003 0.1839381 0.53500003 2.3325847e-38
-0.031080954 0.1839381 0.53500003 2.3418043e-38
-0.030118095 0.1842819 0.53600001 2.341769e-38
-0.029097142 0.1842819 0.53600001 1.8070343e-38
-0.028076192 0.1842819 0.53600001 1.5581415e-38
-0.027257143 0.18565714 0.54000002 1.5120436e-38
-0.026228571 0.18565714 0.54000002 1.4939314e-38
-0.025293335 0.18634477 0.54200006 1.503151e-38
-0.024305716 0.18668857 0.54300004 1.4755639e-38
-0.023314286 0.1870324 0.54400003 1.4018074e-38
-0.022360001 0.18772 0.546 1.3007878e-38
-0.02132 0.18772 0.546 1.8263029e-38
-0.02028 0.18772 0.546 1.9183569e-38
-0.079414286 0.18841429 0.54500002 1.5307727e-38
-0.078376196 0.18841429 0.54500002 1.6046356e-38
-0.077338099 0.18841429 0.54500002 1.7337094e-38
-0.075880013 0.18737715 0.54200006 1.6599545e-38
-0.07470952 0.18703142 0.54100001 1.2727328e-38
-0.073679045 0.18703142 0.54100001 1.2268856e-38
-0.072514281 0.18668571 0.54000002 1.2914225e-38
